ply
format ascii 1.0
comment VCGLIB generated
element vertex 2594
property float x
property float y
property float z
end_header
-1.315 0.931 2.187
-1.314 0.935 2.197
-1.313 0.938 2.205
-1.310 0.941 2.213
-1.308 0.943 2.220
-1.306 0.946 2.228
-1.305 0.950 2.237
-1.304 0.954 2.247
-1.303 0.957 2.256
-1.303 0.962 2.268
-1.303 0.967 2.281
-1.304 0.972 2.293
-1.304 0.977 2.305
-1.303 0.981 2.317
-1.302 0.985 2.327
-1.302 0.990 2.338
-1.300 0.993 2.347
-1.298 0.997 2.356
-1.295 1.000 2.364
-1.292 1.002 2.370
-1.287 1.003 2.373
-1.283 1.005 2.380
-1.283 1.010 2.391
-1.285 1.017 2.409
-1.286 1.023 2.424
-1.285 1.028 2.436
-1.283 1.032 2.446
-1.283 1.037 2.458
-1.282 1.042 2.470
-1.283 1.048 2.485
-1.283 1.054 2.500
-1.283 1.059 2.513
-1.282 1.064 2.526
-1.281 1.069 2.538
-1.279 1.073 2.549
-1.279 1.079 2.563
-1.279 1.085 2.577
-1.278 1.090 2.590
-1.275 1.094 2.600
-1.273 1.098 2.610
-1.270 1.101 2.619
-1.268 1.106 2.630
-1.265 1.110 2.640
-1.262 1.113 2.650
-1.258 1.117 2.658
-1.255 1.120 2.667
-1.252 1.124 2.677
-1.251 1.129 2.690
-1.249 1.134 2.702
-1.247 1.139 2.714
-1.244 1.144 2.725
-1.242 1.149 2.738
-1.240 1.154 2.751
-1.238 1.159 2.764
-1.236 1.164 2.777
-1.234 1.169 2.788
-1.232 1.174 2.801
-1.229 1.179 2.812
-1.227 1.184 2.825
-1.224 1.189 2.837
-1.221 1.194 2.849
-1.218 1.198 2.860
-1.215 1.203 2.872
-1.212 1.208 2.884
-1.209 1.212 2.895
-1.205 1.217 2.906
-1.202 1.221 2.918
-1.198 1.226 2.929
-1.195 1.231 2.942
-1.192 1.236 2.953
-1.189 1.241 2.966
-1.185 1.246 2.978
-1.183 1.252 2.992
-1.180 1.257 3.005
-1.177 1.263 3.019
-1.173 1.268 3.032
-1.170 1.273 3.045
-1.166 1.278 3.057
-1.162 1.282 3.068
-1.157 1.287 3.078
-1.152 1.291 3.088
-1.148 1.295 3.099
-1.143 1.299 3.110
-1.139 1.304 3.121
-1.134 1.308 3.132
-1.129 1.313 3.142
-1.124 1.317 3.153
-1.119 1.321 3.163
-1.114 1.325 3.173
-1.109 1.329 3.182
-1.103 1.332 3.191
-1.097 1.336 3.200
-1.091 1.339 3.207
-1.084 1.341 3.212
-1.076 1.342 3.215
-1.068 1.342 3.216
-1.059 1.342 3.216
-1.050 1.342 3.216
-1.041 1.341 3.215
-1.032 1.340 3.213
-1.022 1.339 3.211
-1.013 1.339 3.209
-1.003 1.337 3.206
-0.994 1.336 3.204
-0.984 1.335 3.201
-0.975 1.334 3.199
-0.965 1.333 3.196
-0.955 1.331 3.193
-0.946 1.330 3.189
-0.936 1.329 3.187
-0.927 1.327 3.184
-0.917 1.326 3.180
-0.907 1.324 3.177
-0.898 1.323 3.174
-0.888 1.321 3.170
-0.879 1.320 3.167
-0.869 1.319 3.164
-0.860 1.317 3.161
-0.850 1.316 3.157
-0.841 1.314 3.154
-0.831 1.313 3.150
-0.822 1.311 3.147
-0.812 1.310 3.143
-0.803 1.308 3.139
-0.793 1.306 3.135
-0.784 1.305 3.132
-0.774 1.303 3.128
-0.765 1.302 3.125
-0.756 1.300 3.121
-0.747 1.299 3.119
-0.737 1.298 3.115
-0.728 1.296 3.112
-0.719 1.294 3.107
-0.709 1.293 3.103
-0.700 1.291 3.099
-0.691 1.289 3.096
-0.682 1.288 3.093
-0.672 1.287 3.089
-0.663 1.285 3.085
-0.654 1.283 3.080
-0.645 1.281 3.076
-0.636 1.280 3.073
-0.626 1.278 3.069
-0.617 1.277 3.065
-0.608 1.275 3.062
-0.599 1.274 3.058
-0.591 1.272 3.055
-0.582 1.271 3.052
-0.573 1.270 3.049
-0.564 1.268 3.045
-0.555 1.266 3.041
-0.546 1.265 3.038
-0.537 1.264 3.035
-0.529 1.262 3.032
-0.520 1.261 3.028
-0.511 1.259 3.025
-0.502 1.258 3.021
-0.493 1.257 3.018
-0.485 1.255 3.015
-0.476 1.254 3.013
-0.468 1.253 3.010
-0.459 1.252 3.007
-0.450 1.250 3.003
-0.442 1.249 2.999
-0.433 1.247 2.995
-0.425 1.246 2.993
-0.416 1.245 2.990
-0.408 1.244 2.987
-0.399 1.242 2.984
-0.391 1.241 2.981
-0.382 1.240 2.978
-0.374 1.239 2.975
-0.365 1.237 2.972
-0.357 1.236 2.968
-0.348 1.235 2.966
-0.340 1.234 2.963
-0.332 1.232 2.961
-0.323 1.231 2.957
-0.315 1.230 2.954
-0.307 1.229 2.951
-0.299 1.227 2.948
-0.290 1.226 2.945
-0.282 1.225 2.942
-0.274 1.223 2.939
-0.266 1.222 2.936
-0.257 1.221 2.933
-0.249 1.220 2.930
-0.241 1.219 2.927
-0.233 1.218 2.925
-0.225 1.217 2.923
-0.217 1.216 2.921
-0.209 1.214 2.917
-0.201 1.213 2.914
-0.192 1.211 2.910
-0.184 1.210 2.907
-0.176 1.209 2.904
-0.168 1.207 2.900
-0.160 1.206 2.898
-0.152 1.205 2.894
-0.144 1.204 2.892
-0.136 1.203 2.889
-0.128 1.201 2.886
-0.120 1.200 2.883
-0.113 1.199 2.880
-0.105 1.198 2.877
-0.097 1.197 2.874
-0.089 1.195 2.872
-0.081 1.194 2.868
-0.073 1.192 2.863
-0.065 1.190 2.858
-0.057 1.187 2.852
-0.050 1.185 2.847
-0.042 1.183 2.843
-0.034 1.181 2.838
-0.026 1.179 2.831
-0.019 1.176 2.826
-0.011 1.174 2.820
-0.003 1.172 2.814
0.004 1.169 2.809
0.012 1.167 2.804
0.019 1.166 2.801
0.027 1.165 2.798
0.034 1.163 2.795
0.042 1.162 2.792
0.049 1.161 2.789
0.057 1.160 2.787
0.064 1.159 2.785
0.072 1.158 2.783
0.079 1.157 2.780
0.087 1.156 2.778
0.094 1.155 2.776
0.102 1.155 2.775
0.109 1.154 2.772
0.116 1.153 2.770
0.124 1.152 2.768
0.131 1.152 2.766
0.139 1.151 2.764
0.146 1.150 2.762
0.153 1.149 2.760
0.161 1.148 2.759
0.168 1.147 2.756
0.175 1.147 2.755
0.183 1.146 2.754
0.190 1.146 2.753
0.198 1.145 2.751
0.205 1.144 2.749
0.212 1.143 2.747
0.219 1.143 2.745
0.227 1.142 2.744
0.234 1.142 2.743
0.241 1.141 2.740
0.248 1.140 2.738
0.256 1.139 2.736
0.263 1.138 2.735
0.270 1.138 2.733
0.277 1.137 2.730
0.284 1.136 2.728
0.292 1.135 2.726
0.299 1.134 2.723
0.306 1.133 2.721
0.313 1.132 2.719
0.320 1.131 2.717
0.327 1.130 2.715
0.334 1.129 2.712
0.341 1.128 2.709
0.348 1.127 2.707
0.355 1.126 2.705
0.362 1.125 2.703
0.369 1.124 2.700
0.376 1.123 2.698
0.383 1.122 2.696
0.390 1.122 2.695
0.397 1.121 2.692
0.404 1.120 2.691
0.411 1.119 2.688
0.418 1.118 2.686
0.425 1.118 2.684
0.432 1.117 2.683
0.439 1.116 2.680
0.446 1.115 2.678
0.453 1.114 2.676
0.460 1.114 2.674
0.467 1.113 2.673
0.474 1.112 2.671
0.480 1.111 2.668
0.487 1.110 2.666
0.494 1.109 2.663
0.501 1.108 2.661
0.507 1.107 2.658
0.514 1.106 2.655
0.521 1.105 2.653
0.528 1.104 2.651
0.534 1.103 2.648
0.541 1.102 2.646
0.548 1.101 2.644
0.554 1.100 2.642
0.561 1.099 2.640
0.567 1.098 2.636
0.574 1.096 2.632
0.580 1.095 2.629
0.587 1.094 2.627
0.594 1.093 2.625
0.600 1.093 2.623
0.607 1.092 2.621
0.613 1.090 2.617
0.619 1.088 2.612
0.624 1.085 2.605
0.630 1.083 2.600
0.636 1.081 2.595
0.642 1.080 2.591
0.648 1.078 2.588
0.654 1.077 2.584
0.661 1.077 2.583
0.670 1.080 2.591
0.680 1.083 2.600
0.688 1.086 2.605
0.695 1.085 2.604
0.701 1.084 2.602
0.708 1.083 2.599
0.714 1.082 2.596
0.720 1.081 2.594
0.727 1.080 2.591
0.733 1.079 2.589
0.739 1.078 2.587
0.746 1.077 2.584
0.752 1.076 2.582
0.759 1.076 2.580
0.765 1.075 2.578
0.771 1.074 2.576
0.778 1.073 2.573
0.784 1.072 2.571
0.790 1.071 2.569
0.797 1.070 2.566
0.803 1.069 2.564
0.809 1.068 2.561
0.815 1.068 2.559
0.822 1.067 2.557
0.828 1.066 2.554
0.834 1.065 2.552
0.840 1.064 2.549
0.846 1.063 2.547
0.852 1.062 2.544
0.859 1.061 2.542
0.865 1.060 2.539
0.871 1.059 2.536
0.877 1.058 2.534
0.883 1.057 2.533
0.889 1.057 2.530
0.895 1.055 2.527
0.901 1.054 2.525
0.907 1.054 2.523
0.914 1.053 2.521
0.920 1.052 2.518
0.926 1.051 2.516
0.932 1.050 2.514
0.938 1.050 2.512
0.944 1.049 2.510
0.950 1.048 2.507
0.956 1.047 2.505
0.962 1.046 2.502
0.968 1.045 2.500
0.974 1.045 2.499
0.981 1.044 2.497
0.987 1.043 2.495
0.992 1.042 2.491
0.998 1.041 2.489
1.004 1.040 2.487
1.010 1.040 2.485
1.016 1.039 2.483
1.022 1.038 2.480
1.028 1.037 2.477
1.034 1.037 2.476
1.040 1.036 2.473
1.046 1.035 2.471
1.052 1.034 2.468
1.058 1.033 2.466
1.063 1.032 2.464
1.070 1.032 2.462
1.076 1.031 2.460
1.082 1.031 2.458
1.087 1.029 2.455
1.093 1.029 2.453
1.099 1.028 2.451
1.105 1.027 2.449
1.111 1.027 2.447
1.117 1.026 2.446
1.124 1.026 2.444
1.130 1.026 2.443
1.135 1.025 2.441
1.141 1.024 2.438
1.147 1.023 2.435
1.153 1.023 2.434
1.159 1.022 2.432
1.165 1.022 2.431
1.171 1.021 2.429
1.177 1.021 2.427
1.183 1.020 2.424
1.189 1.019 2.422
1.195 1.018 2.420
1.201 1.018 2.419
1.206 1.017 2.416
1.212 1.017 2.414
1.218 1.016 2.412
1.224 1.015 2.409
1.230 1.015 2.408
1.236 1.014 2.406
1.242 1.014 2.404
1.247 1.013 2.402
1.254 1.013 2.401
1.259 1.012 2.399
1.265 1.011 2.396
1.270 1.010 2.393
1.276 1.009 2.390
1.282 1.009 2.388
1.288 1.009 2.387
1.294 1.008 2.385
1.299 1.007 2.383
1.305 1.007 2.381
1.312 1.007 2.380
1.318 1.006 2.378
1.323 1.005 2.375
1.328 1.004 2.372
1.334 1.004 2.370
1.340 1.003 2.368
1.346 1.003 2.367
1.351 1.002 2.364
1.357 1.002 2.362
1.364 1.002 2.361
1.369 1.001 2.359
1.375 1.001 2.357
1.381 1.000 2.354
1.387 0.999 2.352
1.392 0.999 2.350
1.398 0.998 2.348
1.403 0.997 2.345
1.408 0.997 2.342
1.413 0.995 2.338
1.419 0.995 2.335
1.424 0.994 2.332
1.430 0.994 2.332
1.437 0.994 2.331
1.443 0.993 2.328
1.447 0.992 2.324
1.453 0.992 2.323
1.459 0.991 2.320
1.465 0.991 2.318
1.469 0.989 2.313
1.475 0.989 2.313
1.481 0.989 2.310
1.485 0.987 2.306
1.489 0.986 2.301
1.496 0.986 2.300
1.501 0.985 2.297
1.506 0.984 2.294
1.511 0.983 2.291
1.517 0.983 2.290
1.524 0.983 2.289
1.529 0.982 2.285
1.533 0.981 2.281
1.540 0.981 2.280
1.542 0.978 2.272
1.549 0.979 2.272
1.552 0.977 2.266
1.559 0.977 2.266
1.564 0.976 2.263
1.571 0.977 2.262
1.574 0.975 2.256
1.581 0.975 2.255
1.579 0.970 2.243
1.591 0.973 2.249
0.000 0.000 0.000
0.000 0.000 0.000
0.000 0.000 0.000
0.000 0.000 0.000
0.000 0.000 0.000
0.000 0.000 0.000
0.000 0.000 0.000
0.000 0.000 0.000
0.000 0.000 0.000
0.000 0.000 0.000
0.000 0.000 0.000
0.000 0.000 0.000
0.000 0.000 0.000
0.000 0.000 0.000
0.000 0.000 0.000
0.000 0.000 0.000
0.000 0.000 0.000
0.000 0.000 0.000
0.000 0.000 0.000
0.000 0.000 0.000
0.000 0.000 0.000
0.000 0.000 0.000
0.000 0.000 0.000
0.000 0.000 0.000
0.000 0.000 0.000
0.000 0.000 0.000
0.000 0.000 0.000
0.000 0.000 0.000
0.000 0.000 0.000
0.000 0.000 0.000
0.000 0.000 0.000
0.000 0.000 0.000
0.000 0.000 0.000
0.000 0.000 0.000
0.000 0.000 0.000
-1.318 0.898 2.118
-1.319 0.902 2.130
-1.317 0.905 2.138
-1.317 0.909 2.148
-1.316 0.913 2.157
-1.317 0.917 2.169
-1.315 0.921 2.178
-1.315 0.925 2.189
-1.314 0.928 2.197
-1.313 0.932 2.206
-1.311 0.935 2.214
-1.308 0.937 2.220
-1.306 0.940 2.228
-1.305 0.944 2.239
-1.305 0.948 2.249
-1.303 0.951 2.257
-1.301 0.955 2.266
-1.301 0.959 2.277
-1.303 0.965 2.292
-1.302 0.969 2.303
-1.301 0.973 2.313
-1.301 0.978 2.325
-1.300 0.982 2.335
-1.298 0.985 2.344
-1.296 0.989 2.353
-1.294 0.992 2.361
-1.291 0.995 2.368
-1.286 0.996 2.372
-1.282 0.998 2.378
-1.282 1.003 2.390
-1.284 1.009 2.407
-1.285 1.016 2.422
-1.284 1.020 2.434
-1.282 1.024 2.444
-1.281 1.029 2.456
-1.281 1.034 2.469
-1.281 1.040 2.483
-1.282 1.046 2.497
-1.281 1.051 2.510
-1.281 1.056 2.524
-1.279 1.061 2.536
-1.278 1.065 2.547
-1.276 1.070 2.559
-1.276 1.076 2.573
-1.276 1.081 2.587
-1.274 1.085 2.598
-1.271 1.089 2.607
-1.269 1.093 2.618
-1.266 1.097 2.628
-1.264 1.102 2.640
-1.261 1.105 2.648
-1.257 1.108 2.656
-1.253 1.111 2.663
-1.251 1.116 2.674
-1.249 1.120 2.686
-1.247 1.126 2.699
-1.245 1.130 2.711
-1.243 1.135 2.723
-1.241 1.140 2.735
-1.239 1.145 2.748
-1.237 1.150 2.760
-1.234 1.155 2.772
-1.232 1.159 2.784
-1.230 1.165 2.797
-1.228 1.170 2.810
-1.225 1.175 2.823
-1.222 1.180 2.834
-1.220 1.185 2.846
-1.217 1.189 2.858
-1.214 1.194 2.871
-1.211 1.199 2.882
-1.208 1.204 2.894
-1.204 1.208 2.905
-1.201 1.213 2.917
-1.198 1.217 2.928
-1.194 1.222 2.940
-1.191 1.226 2.951
-1.188 1.232 2.964
-1.184 1.236 2.975
-1.181 1.242 2.989
-1.178 1.247 3.002
-1.175 1.253 3.016
-1.172 1.258 3.029
-1.169 1.264 3.042
-1.165 1.268 3.054
-1.161 1.273 3.066
-1.156 1.277 3.077
-1.152 1.281 3.087
-1.147 1.286 3.098
-1.143 1.290 3.108
-1.138 1.295 3.119
-1.133 1.299 3.129
-1.128 1.303 3.140
-1.123 1.307 3.150
-1.119 1.311 3.161
-1.113 1.315 3.171
-1.108 1.319 3.180
-1.102 1.323 3.189
-1.096 1.326 3.197
-1.090 1.329 3.204
-1.083 1.331 3.209
-1.075 1.332 3.212
-1.067 1.332 3.213
-1.058 1.332 3.213
-1.049 1.332 3.212
-1.040 1.331 3.212
-1.031 1.331 3.210
-1.021 1.330 3.209
-1.012 1.329 3.207
-1.002 1.328 3.204
-0.993 1.326 3.201
-0.983 1.325 3.199
-0.974 1.324 3.197
-0.964 1.323 3.194
-0.955 1.322 3.191
-0.945 1.320 3.188
-0.935 1.319 3.184
-0.926 1.317 3.181
-0.916 1.316 3.177
-0.907 1.315 3.174
-0.897 1.313 3.171
-0.887 1.312 3.167
-0.878 1.310 3.164
-0.868 1.309 3.161
-0.859 1.307 3.157
-0.849 1.306 3.155
-0.840 1.305 3.151
-0.830 1.303 3.148
-0.821 1.301 3.144
-0.811 1.300 3.141
-0.802 1.299 3.137
-0.793 1.297 3.134
-0.783 1.296 3.130
-0.774 1.294 3.126
-0.765 1.293 3.123
-0.755 1.291 3.119
-0.746 1.290 3.116
-0.737 1.288 3.113
-0.727 1.287 3.109
-0.718 1.285 3.105
-0.709 1.283 3.101
-0.699 1.282 3.097
-0.690 1.280 3.093
-0.681 1.279 3.090
-0.672 1.277 3.086
-0.662 1.275 3.082
-0.653 1.273 3.076
-0.644 1.272 3.073
-0.635 1.270 3.070
-0.626 1.269 3.066
-0.617 1.267 3.063
-0.608 1.266 3.059
-0.599 1.264 3.056
-0.590 1.263 3.053
-0.581 1.262 3.050
-0.572 1.261 3.047
-0.564 1.259 3.043
-0.555 1.258 3.040
-0.546 1.256 3.036
-0.537 1.255 3.033
-0.528 1.253 3.029
-0.519 1.252 3.026
-0.511 1.250 3.023
-0.502 1.249 3.020
-0.493 1.247 3.016
-0.484 1.246 3.013
-0.476 1.245 3.010
-0.467 1.244 3.007
-0.459 1.242 3.004
-0.450 1.241 3.000
-0.441 1.239 2.996
-0.433 1.238 2.993
-0.424 1.237 2.990
-0.416 1.235 2.987
-0.407 1.234 2.984
-0.399 1.233 2.981
-0.390 1.232 2.978
-0.382 1.231 2.975
-0.373 1.229 2.972
-0.365 1.228 2.969
-0.357 1.227 2.966
-0.348 1.226 2.963
-0.340 1.225 2.961
-0.332 1.223 2.958
-0.323 1.222 2.954
-0.315 1.221 2.951
-0.307 1.219 2.948
-0.298 1.218 2.946
-0.290 1.217 2.943
-0.282 1.216 2.940
-0.274 1.215 2.937
-0.265 1.214 2.934
-0.257 1.212 2.931
-0.249 1.211 2.928
-0.241 1.210 2.926
-0.233 1.209 2.924
-0.225 1.208 2.921
-0.217 1.207 2.918
-0.208 1.205 2.914
-0.200 1.204 2.911
-0.192 1.202 2.907
-0.184 1.201 2.905
-0.176 1.200 2.902
-0.168 1.199 2.899
-0.160 1.198 2.896
-0.152 1.196 2.893
-0.144 1.195 2.889
-0.136 1.194 2.887
-0.128 1.192 2.883
-0.120 1.191 2.880
-0.112 1.189 2.876
-0.104 1.188 2.872
-0.097 1.186 2.867
-0.089 1.184 2.862
-0.081 1.181 2.856
-0.073 1.178 2.849
-0.065 1.176 2.843
-0.057 1.173 2.837
-0.049 1.171 2.832
-0.042 1.169 2.827
-0.034 1.167 2.822
-0.026 1.165 2.817
-0.019 1.163 2.812
-0.011 1.162 2.809
-0.003 1.160 2.805
0.004 1.159 2.803
0.012 1.158 2.800
0.019 1.157 2.798
0.027 1.156 2.795
0.034 1.155 2.793
0.042 1.154 2.790
0.049 1.153 2.788
0.057 1.152 2.786
0.064 1.151 2.784
0.072 1.150 2.782
0.079 1.150 2.780
0.087 1.149 2.778
0.094 1.148 2.776
0.102 1.147 2.774
0.109 1.147 2.773
0.117 1.146 2.770
0.124 1.145 2.768
0.131 1.144 2.766
0.139 1.144 2.765
0.146 1.143 2.763
0.153 1.142 2.762
0.161 1.141 2.760
0.168 1.141 2.758
0.176 1.140 2.756
0.183 1.139 2.755
0.190 1.139 2.754
0.198 1.138 2.752
0.205 1.137 2.750
0.212 1.137 2.748
0.219 1.136 2.746
0.227 1.135 2.745
0.234 1.134 2.742
0.241 1.133 2.740
0.248 1.132 2.738
0.256 1.131 2.735
0.263 1.130 2.733
0.270 1.130 2.731
0.277 1.129 2.729
0.284 1.127 2.726
0.291 1.126 2.723
0.298 1.126 2.721
0.306 1.125 2.719
0.313 1.124 2.717
0.320 1.123 2.715
0.327 1.122 2.713
0.334 1.121 2.711
0.341 1.120 2.709
0.348 1.119 2.706
0.355 1.118 2.704
0.362 1.118 2.702
0.369 1.117 2.700
0.376 1.116 2.699
0.383 1.115 2.697
0.390 1.114 2.695
0.397 1.114 2.692
0.404 1.113 2.690
0.411 1.112 2.688
0.418 1.111 2.686
0.425 1.110 2.685
0.432 1.110 2.682
0.439 1.109 2.680
0.446 1.107 2.677
0.453 1.107 2.675
0.459 1.106 2.673
0.466 1.105 2.671
0.473 1.104 2.669
0.480 1.103 2.667
0.487 1.102 2.664
0.494 1.101 2.662
0.500 1.100 2.659
0.507 1.099 2.657
0.514 1.098 2.654
0.521 1.097 2.652
0.527 1.096 2.650
0.534 1.095 2.648
0.541 1.094 2.645
0.547 1.093 2.643
0.554 1.092 2.640
0.561 1.091 2.638
0.567 1.090 2.634
0.573 1.088 2.630
0.580 1.087 2.627
0.586 1.086 2.625
0.593 1.085 2.623
0.600 1.085 2.621
0.606 1.084 2.618
0.612 1.082 2.615
0.618 1.080 2.610
0.624 1.078 2.604
0.630 1.075 2.598
0.636 1.073 2.593
0.642 1.072 2.589
0.648 1.070 2.585
0.654 1.069 2.582
0.661 1.068 2.581
0.670 1.072 2.588
0.679 1.075 2.598
0.688 1.078 2.603
0.694 1.077 2.602
0.701 1.077 2.600
0.707 1.076 2.598
0.714 1.075 2.595
0.720 1.074 2.593
0.726 1.073 2.590
0.733 1.072 2.588
0.739 1.071 2.586
0.746 1.070 2.584
0.752 1.069 2.581
0.758 1.068 2.579
0.765 1.067 2.577
0.771 1.066 2.574
0.777 1.065 2.572
0.783 1.064 2.569
0.790 1.064 2.567
0.796 1.063 2.565
0.802 1.062 2.563
0.809 1.061 2.560
0.815 1.060 2.558
0.821 1.059 2.555
0.827 1.058 2.553
0.833 1.057 2.550
0.839 1.056 2.547
0.846 1.055 2.545
0.852 1.054 2.543
0.858 1.053 2.540
0.864 1.052 2.538
0.870 1.051 2.535
0.876 1.051 2.533
0.882 1.050 2.531
0.889 1.049 2.529
0.895 1.048 2.526
0.901 1.047 2.523
0.907 1.046 2.521
0.913 1.045 2.519
0.919 1.045 2.517
0.925 1.044 2.515
0.931 1.043 2.513
0.937 1.042 2.511
0.944 1.042 2.509
0.950 1.041 2.507
0.956 1.040 2.504
0.961 1.039 2.501
0.967 1.038 2.499
0.974 1.037 2.497
0.980 1.037 2.496
0.986 1.036 2.494
0.992 1.035 2.491
0.998 1.034 2.488
1.003 1.033 2.485
1.010 1.033 2.484
1.016 1.032 2.481
1.022 1.031 2.479
1.027 1.030 2.477
1.034 1.029 2.475
1.039 1.028 2.472
1.045 1.028 2.470
1.051 1.027 2.468
1.057 1.026 2.465
1.063 1.025 2.463
1.069 1.025 2.461
1.075 1.024 2.459
1.081 1.023 2.457
1.086 1.022 2.454
1.092 1.021 2.452
1.098 1.021 2.449
1.104 1.020 2.448
1.111 1.020 2.447
1.117 1.019 2.445
1.123 1.019 2.444
1.129 1.018 2.442
1.135 1.017 2.439
1.140 1.017 2.437
1.146 1.016 2.434
1.152 1.015 2.433
1.158 1.015 2.431
1.165 1.015 2.430
1.170 1.014 2.428
1.176 1.013 2.426
1.182 1.012 2.423
1.188 1.012 2.421
1.194 1.011 2.419
1.200 1.011 2.417
1.206 1.010 2.415
1.211 1.009 2.413
1.217 1.009 2.411
1.223 1.008 2.408
1.229 1.007 2.406
1.235 1.007 2.404
1.241 1.006 2.403
1.247 1.006 2.401
1.253 1.005 2.399
1.258 1.005 2.397
1.264 1.004 2.395
1.270 1.003 2.392
1.275 1.002 2.390
1.281 1.002 2.388
1.287 1.001 2.386
1.293 1.001 2.384
1.298 1.000 2.381
1.304 1.000 2.380
1.311 1.000 2.379
1.317 0.999 2.377
1.322 0.998 2.374
1.328 0.997 2.372
1.334 0.997 2.370
1.340 0.997 2.368
1.345 0.996 2.366
1.351 0.995 2.363
1.357 0.995 2.361
1.362 0.994 2.359
1.368 0.994 2.358
1.374 0.993 2.355
1.380 0.993 2.353
1.386 0.992 2.351
1.391 0.992 2.349
1.397 0.991 2.346
1.402 0.990 2.343
1.407 0.989 2.341
1.413 0.989 2.338
1.418 0.988 2.336
1.424 0.987 2.333
1.429 0.987 2.330
1.435 0.986 2.328
1.441 0.986 2.326
1.446 0.985 2.323
1.452 0.984 2.321
1.458 0.984 2.320
1.463 0.983 2.317
1.469 0.983 2.314
1.474 0.982 2.312
1.479 0.981 2.308
1.484 0.980 2.305
1.490 0.980 2.302
1.495 0.979 2.300
1.500 0.978 2.297
1.505 0.977 2.293
1.511 0.977 2.291
1.517 0.977 2.290
1.523 0.976 2.288
1.529 0.976 2.286
1.533 0.975 2.281
1.537 0.973 2.277
1.542 0.972 2.273
1.545 0.970 2.267
1.552 0.970 2.267
1.558 0.970 2.265
1.563 0.969 2.262
1.568 0.969 2.259
1.575 0.969 2.258
1.578 0.967 2.253
1.586 0.968 2.253
1.589 0.966 2.248
0.000 0.000 0.000
0.000 0.000 0.000
0.000 0.000 0.000
0.000 0.000 0.000
0.000 0.000 0.000
0.000 0.000 0.000
0.000 0.000 0.000
0.000 0.000 0.000
0.000 0.000 0.000
0.000 0.000 0.000
0.000 0.000 0.000
0.000 0.000 0.000
0.000 0.000 0.000
0.000 0.000 0.000
0.000 0.000 0.000
0.000 0.000 0.000
0.000 0.000 0.000
0.000 0.000 0.000
0.000 0.000 0.000
0.000 0.000 0.000
0.000 0.000 0.000
0.000 0.000 0.000
0.000 0.000 0.000
0.000 0.000 0.000
0.000 0.000 0.000
0.000 0.000 0.000
0.000 0.000 0.000
0.000 0.000 0.000
0.000 0.000 0.000
0.000 0.000 0.000
0.000 0.000 0.000
0.000 0.000 0.000
0.000 0.000 0.000
0.000 0.000 0.000
-1.319 0.889 2.111
-1.317 0.892 2.118
-1.316 0.895 2.127
-1.317 0.899 2.138
-1.316 0.903 2.147
-1.316 0.907 2.158
-1.315 0.910 2.167
-1.315 0.914 2.177
-1.314 0.918 2.187
-1.313 0.922 2.197
-1.313 0.926 2.207
-1.310 0.928 2.213
-1.308 0.931 2.220
-1.306 0.934 2.228
-1.305 0.938 2.239
-1.305 0.942 2.250
-1.303 0.945 2.257
-1.300 0.947 2.264
-1.299 0.951 2.274
-1.299 0.956 2.286
-1.299 0.961 2.299
-1.299 0.965 2.310
-1.300 0.971 2.323
-1.299 0.974 2.334
-1.297 0.978 2.343
-1.295 0.982 2.352
-1.293 0.985 2.361
-1.290 0.987 2.367
-1.285 0.988 2.370
-1.281 0.991 2.376
-1.280 0.995 2.388
-1.282 1.002 2.404
-1.283 1.008 2.419
-1.282 1.012 2.431
-1.281 1.016 2.441
-1.280 1.021 2.453
-1.280 1.026 2.467
-1.280 1.032 2.481
-1.280 1.037 2.494
-1.280 1.043 2.508
-1.280 1.048 2.522
-1.279 1.053 2.535
-1.277 1.057 2.545
-1.276 1.062 2.558
-1.275 1.068 2.571
-1.274 1.073 2.584
-1.272 1.077 2.594
-1.270 1.081 2.605
-1.267 1.085 2.615
-1.265 1.090 2.627
-1.263 1.094 2.637
-1.259 1.097 2.645
-1.255 1.100 2.653
-1.251 1.103 2.660
-1.249 1.107 2.671
-1.247 1.112 2.683
-1.246 1.117 2.696
-1.244 1.122 2.708
-1.241 1.126 2.720
-1.240 1.131 2.733
-1.238 1.136 2.746
-1.235 1.141 2.758
-1.233 1.146 2.770
-1.231 1.151 2.782
-1.229 1.156 2.795
-1.226 1.161 2.808
-1.224 1.166 2.820
-1.221 1.171 2.832
-1.219 1.176 2.844
-1.216 1.181 2.857
-1.213 1.185 2.868
-1.210 1.190 2.880
-1.207 1.195 2.892
-1.203 1.199 2.903
-1.200 1.204 2.914
-1.197 1.208 2.926
-1.194 1.213 2.938
-1.190 1.218 2.950
-1.187 1.223 2.962
-1.184 1.228 2.974
-1.181 1.233 2.988
-1.177 1.238 3.001
-1.175 1.244 3.015
-1.171 1.249 3.027
-1.168 1.254 3.041
-1.164 1.259 3.053
-1.160 1.264 3.064
-1.155 1.268 3.074
-1.151 1.272 3.084
-1.146 1.276 3.095
-1.142 1.281 3.106
-1.137 1.285 3.117
-1.132 1.289 3.127
-1.128 1.293 3.138
-1.123 1.298 3.148
-1.118 1.302 3.159
-1.113 1.306 3.169
-1.107 1.310 3.179
-1.102 1.313 3.187
-1.096 1.316 3.195
-1.089 1.319 3.202
-1.082 1.321 3.207
-1.074 1.322 3.210
-1.066 1.322 3.211
-1.057 1.322 3.210
-1.048 1.322 3.210
-1.039 1.321 3.209
-1.029 1.320 3.207
-1.020 1.320 3.205
-1.011 1.319 3.203
-1.001 1.318 3.201
-0.992 1.316 3.198
-0.982 1.315 3.196
-0.973 1.314 3.193
-0.963 1.313 3.191
-0.954 1.312 3.188
-0.944 1.311 3.186
-0.935 1.309 3.182
-0.925 1.308 3.179
-0.915 1.306 3.175
-0.906 1.305 3.172
-0.896 1.304 3.169
-0.887 1.302 3.166
-0.877 1.301 3.162
-0.868 1.299 3.159
-0.858 1.298 3.155
-0.849 1.296 3.152
-0.839 1.295 3.148
-0.830 1.293 3.145
-0.820 1.292 3.141
-0.811 1.290 3.137
-0.801 1.289 3.134
-0.792 1.287 3.131
-0.783 1.286 3.128
-0.773 1.284 3.124
-0.764 1.283 3.121
-0.755 1.282 3.117
-0.745 1.280 3.114
-0.736 1.279 3.110
-0.727 1.277 3.107
-0.717 1.276 3.103
-0.708 1.274 3.099
-0.699 1.272 3.095
-0.690 1.271 3.091
-0.680 1.269 3.088
-0.671 1.267 3.083
-0.662 1.266 3.079
-0.653 1.264 3.075
-0.644 1.262 3.071
-0.635 1.261 3.068
-0.625 1.259 3.064
-0.616 1.258 3.061
-0.607 1.256 3.057
-0.598 1.255 3.054
-0.590 1.254 3.051
-0.581 1.252 3.047
-0.572 1.251 3.044
-0.563 1.250 3.041
-0.554 1.248 3.037
-0.545 1.247 3.033
-0.536 1.245 3.030
-0.528 1.244 3.026
-0.519 1.243 3.024
-0.510 1.241 3.020
-0.501 1.240 3.017
-0.493 1.238 3.013
-0.484 1.237 3.011
-0.476 1.236 3.009
-0.467 1.235 3.005
-0.458 1.233 3.002
-0.450 1.232 2.998
-0.441 1.231 2.995
-0.432 1.229 2.992
-0.424 1.228 2.989
-0.415 1.227 2.985
-0.407 1.225 2.982
-0.398 1.224 2.979
-0.390 1.223 2.976
-0.382 1.222 2.973
-0.373 1.220 2.970
-0.365 1.219 2.967
-0.356 1.218 2.964
-0.348 1.217 2.961
-0.340 1.216 2.958
-0.331 1.215 2.956
-0.323 1.213 2.952
-0.315 1.212 2.949
-0.306 1.210 2.946
-0.298 1.209 2.943
-0.290 1.208 2.941
-0.282 1.207 2.937
-0.273 1.206 2.934
-0.265 1.204 2.931
-0.257 1.203 2.929
-0.249 1.202 2.925
-0.241 1.201 2.923
-0.233 1.200 2.920
-0.224 1.199 2.918
-0.216 1.198 2.915
-0.208 1.196 2.911
-0.200 1.195 2.908
-0.192 1.193 2.905
-0.184 1.192 2.902
-0.176 1.191 2.900
-0.168 1.190 2.896
-0.160 1.189 2.893
-0.152 1.187 2.889
-0.144 1.185 2.885
-0.136 1.184 2.881
-0.128 1.182 2.877
-0.120 1.180 2.871
-0.112 1.177 2.866
-0.104 1.175 2.860
-0.096 1.173 2.854
-0.088 1.170 2.848
-0.080 1.168 2.842
-0.072 1.165 2.836
-0.065 1.163 2.830
-0.057 1.161 2.825
-0.049 1.159 2.822
-0.042 1.158 2.818
-0.034 1.156 2.815
-0.026 1.155 2.812
-0.019 1.154 2.809
-0.011 1.153 2.807
-0.003 1.152 2.805
0.004 1.151 2.802
0.012 1.150 2.799
0.019 1.149 2.798
0.027 1.149 2.796
0.034 1.148 2.793
0.042 1.147 2.791
0.049 1.146 2.788
0.057 1.145 2.787
0.064 1.144 2.785
0.072 1.143 2.783
0.079 1.142 2.780
0.087 1.142 2.779
0.094 1.141 2.777
0.102 1.141 2.776
0.109 1.140 2.774
0.117 1.139 2.772
0.124 1.138 2.770
0.131 1.137 2.769
0.139 1.137 2.767
0.146 1.136 2.765
0.154 1.135 2.764
0.161 1.135 2.762
0.168 1.134 2.760
0.176 1.133 2.759
0.183 1.133 2.757
0.190 1.132 2.755
0.198 1.131 2.753
0.205 1.130 2.751
0.212 1.129 2.749
0.219 1.128 2.746
0.227 1.127 2.744
0.234 1.127 2.742
0.241 1.126 2.739
0.248 1.125 2.737
0.256 1.123 2.735
0.263 1.123 2.733
0.270 1.122 2.730
0.277 1.121 2.728
0.284 1.120 2.725
0.291 1.118 2.722
0.298 1.118 2.720
0.305 1.117 2.718
0.313 1.116 2.717
0.320 1.115 2.715
0.327 1.114 2.712
0.334 1.114 2.710
0.341 1.113 2.708
0.348 1.112 2.706
0.355 1.111 2.704
0.362 1.110 2.703
0.369 1.110 2.701
0.376 1.109 2.699
0.383 1.108 2.696
0.390 1.107 2.695
0.397 1.106 2.692
0.404 1.105 2.690
0.411 1.104 2.688
0.418 1.104 2.686
0.425 1.102 2.683
0.432 1.102 2.681
0.439 1.101 2.678
0.446 1.100 2.676
0.452 1.099 2.674
0.459 1.098 2.672
0.466 1.097 2.669
0.473 1.096 2.667
0.480 1.095 2.665
0.487 1.095 2.663
0.494 1.094 2.661
0.500 1.093 2.659
0.507 1.092 2.656
0.514 1.091 2.654
0.520 1.090 2.651
0.527 1.089 2.649
0.534 1.088 2.646
0.540 1.087 2.644
0.547 1.086 2.641
0.554 1.085 2.639
0.560 1.084 2.636
0.567 1.082 2.633
0.573 1.081 2.629
0.579 1.079 2.625
0.586 1.078 2.623
0.593 1.077 2.621
0.599 1.077 2.619
0.606 1.076 2.617
0.612 1.074 2.613
0.618 1.072 2.609
0.624 1.070 2.603
0.629 1.068 2.597
0.635 1.066 2.592
0.641 1.064 2.588
0.647 1.063 2.584
0.654 1.062 2.582
0.660 1.061 2.580
0.669 1.064 2.587
0.678 1.067 2.596
0.687 1.070 2.602
0.694 1.070 2.601
0.700 1.069 2.599
0.707 1.068 2.596
0.713 1.067 2.594
0.719 1.066 2.591
0.726 1.065 2.589
0.732 1.064 2.587
0.739 1.063 2.585
0.745 1.063 2.583
0.752 1.062 2.580
0.758 1.061 2.578
0.764 1.060 2.576
0.770 1.059 2.573
0.777 1.058 2.570
0.783 1.057 2.568
0.789 1.056 2.566
0.796 1.055 2.564
0.802 1.054 2.561
0.808 1.053 2.559
0.814 1.052 2.556
0.820 1.051 2.554
0.827 1.050 2.551
0.833 1.049 2.548
0.839 1.048 2.546
0.845 1.047 2.543
0.851 1.047 2.542
0.857 1.046 2.539
0.863 1.045 2.536
0.870 1.044 2.534
0.876 1.043 2.532
0.882 1.042 2.530
0.888 1.041 2.528
0.894 1.040 2.525
0.900 1.040 2.522
0.906 1.039 2.520
0.912 1.038 2.518
0.919 1.037 2.516
0.924 1.036 2.513
0.931 1.035 2.511
0.937 1.035 2.509
0.943 1.034 2.507
0.949 1.033 2.505
0.955 1.032 2.502
0.961 1.031 2.500
0.967 1.030 2.498
0.973 1.030 2.496
0.979 1.029 2.494
0.985 1.029 2.492
0.991 1.027 2.489
0.997 1.027 2.487
1.003 1.026 2.484
1.009 1.025 2.482
1.015 1.024 2.480
1.021 1.024 2.478
1.027 1.023 2.476
1.033 1.022 2.474
1.039 1.021 2.471
1.045 1.020 2.469
1.050 1.019 2.466
1.056 1.019 2.464
1.062 1.018 2.462
1.068 1.017 2.460
1.074 1.017 2.458
1.080 1.016 2.455
1.086 1.015 2.452
1.091 1.014 2.450
1.097 1.013 2.448
1.104 1.013 2.447
1.110 1.012 2.445
1.116 1.012 2.444
1.122 1.012 2.442
1.128 1.011 2.441
1.134 1.011 2.439
1.140 1.010 2.437
1.146 1.009 2.434
1.152 1.008 2.432
1.158 1.007 2.430
1.164 1.007 2.428
1.169 1.006 2.426
1.175 1.006 2.424
1.181 1.005 2.421
1.187 1.004 2.420
1.193 1.004 2.418
1.199 1.003 2.416
1.205 1.003 2.414
1.211 1.002 2.412
1.217 1.002 2.410
1.222 1.001 2.408
1.229 1.001 2.407
1.234 1.000 2.405
1.240 1.000 2.403
1.246 0.999 2.400
1.252 0.998 2.398
1.257 0.997 2.396
1.263 0.997 2.394
1.269 0.996 2.392
1.275 0.996 2.390
1.281 0.995 2.388
1.287 0.994 2.386
1.292 0.994 2.383
1.297 0.993 2.380
1.304 0.993 2.380
1.310 0.993 2.379
1.316 0.992 2.376
1.321 0.991 2.373
1.327 0.990 2.371
1.333 0.990 2.370
1.339 0.990 2.367
1.345 0.989 2.365
1.350 0.988 2.363
1.356 0.988 2.361
1.361 0.987 2.358
1.367 0.986 2.356
1.373 0.986 2.354
1.379 0.986 2.352
1.385 0.985 2.350
1.390 0.985 2.348
1.396 0.984 2.345
1.401 0.983 2.342
1.406 0.982 2.339
1.412 0.981 2.337
1.419 0.982 2.336
1.424 0.981 2.334
1.430 0.980 2.331
1.434 0.979 2.327
1.439 0.978 2.325
1.445 0.978 2.322
1.451 0.977 2.321
1.457 0.977 2.318
1.463 0.977 2.317
1.467 0.975 2.313
1.473 0.975 2.311
1.478 0.974 2.307
1.484 0.974 2.306
1.490 0.973 2.304
1.495 0.972 2.300
1.499 0.971 2.296
1.505 0.971 2.294
1.510 0.970 2.290
1.516 0.970 2.289
1.521 0.969 2.286
1.526 0.968 2.283
1.532 0.967 2.280
1.536 0.966 2.277
1.541 0.965 2.272
1.546 0.964 2.270
1.552 0.964 2.268
1.558 0.964 2.266
1.561 0.962 2.259
1.567 0.962 2.258
1.572 0.961 2.255
1.578 0.961 2.254
1.583 0.960 2.250
1.591 0.961 2.250
0.000 0.000 0.000
0.000 0.000 0.000
0.000 0.000 0.000
0.000 0.000 0.000
0.000 0.000 0.000
0.000 0.000 0.000
0.000 0.000 0.000
0.000 0.000 0.000
0.000 0.000 0.000
0.000 0.000 0.000
0.000 0.000 0.000
0.000 0.000 0.000
0.000 0.000 0.000
0.000 0.000 0.000
0.000 0.000 0.000
0.000 0.000 0.000
0.000 0.000 0.000
0.000 0.000 0.000
0.000 0.000 0.000
0.000 0.000 0.000
0.000 0.000 0.000
0.000 0.000 0.000
0.000 0.000 0.000
0.000 0.000 0.000
0.000 0.000 0.000
0.000 0.000 0.000
0.000 0.000 0.000
0.000 0.000 0.000
0.000 0.000 0.000
0.000 0.000 0.000
0.000 0.000 0.000
0.000 0.000 0.000
0.000 0.000 0.000
0.000 0.000 0.000
-1.320 0.884 2.112
-1.317 0.886 2.119
-1.315 0.888 2.126
-1.315 0.892 2.135
-1.316 0.897 2.147
-1.314 0.900 2.155
-1.315 0.904 2.167
-1.313 0.907 2.176
-1.313 0.911 2.186
-1.312 0.915 2.196
-1.312 0.919 2.206
-1.311 0.923 2.215
-1.308 0.925 2.222
-1.306 0.928 2.230
-1.305 0.932 2.240
-1.305 0.936 2.250
-1.303 0.939 2.258
-1.301 0.942 2.266
-1.299 0.945 2.275
-1.298 0.949 2.284
-1.297 0.953 2.296
-1.297 0.957 2.307
-1.297 0.962 2.319
-1.297 0.967 2.332
-1.295 0.970 2.341
-1.294 0.974 2.350
-1.292 0.978 2.359
-1.288 0.980 2.366
-1.283 0.981 2.368
-1.280 0.983 2.375
-1.279 0.988 2.386
-1.281 0.994 2.403
-1.282 1.000 2.418
-1.281 1.004 2.428
-1.279 1.009 2.440
-1.279 1.013 2.452
-1.279 1.019 2.465
-1.278 1.024 2.478
-1.279 1.030 2.493
-1.279 1.035 2.507
-1.278 1.040 2.519
-1.276 1.044 2.531
-1.275 1.049 2.542
-1.274 1.054 2.554
-1.273 1.059 2.568
-1.272 1.064 2.580
-1.270 1.068 2.592
-1.268 1.073 2.602
-1.267 1.078 2.615
-1.264 1.082 2.625
-1.262 1.086 2.636
-1.258 1.089 2.644
-1.254 1.091 2.651
-1.250 1.094 2.658
-1.248 1.098 2.669
-1.246 1.103 2.681
-1.244 1.108 2.693
-1.242 1.113 2.705
-1.240 1.117 2.717
-1.238 1.122 2.729
-1.236 1.127 2.742
-1.234 1.133 2.755
-1.232 1.137 2.767
-1.230 1.142 2.780
-1.227 1.147 2.793
-1.225 1.153 2.806
-1.223 1.157 2.818
-1.221 1.163 2.831
-1.218 1.167 2.843
-1.215 1.172 2.855
-1.212 1.177 2.866
-1.209 1.181 2.878
-1.206 1.186 2.890
-1.202 1.190 2.901
-1.199 1.195 2.912
-1.195 1.199 2.923
-1.192 1.204 2.935
-1.189 1.209 2.947
-1.186 1.214 2.960
-1.183 1.219 2.972
-1.180 1.224 2.986
-1.176 1.229 2.998
-1.173 1.235 3.012
-1.170 1.240 3.025
-1.167 1.245 3.038
-1.163 1.250 3.051
-1.159 1.255 3.062
-1.155 1.259 3.072
-1.150 1.263 3.083
-1.145 1.267 3.093
-1.141 1.271 3.105
-1.136 1.276 3.115
-1.132 1.280 3.126
-1.127 1.284 3.136
-1.122 1.288 3.146
-1.117 1.292 3.156
-1.112 1.296 3.166
-1.106 1.300 3.176
-1.100 1.303 3.184
-1.094 1.306 3.192
-1.088 1.309 3.199
-1.081 1.311 3.204
-1.073 1.312 3.207
-1.065 1.312 3.208
-1.056 1.312 3.208
-1.047 1.312 3.208
-1.038 1.312 3.207
-1.029 1.311 3.205
-1.019 1.310 3.203
-1.010 1.309 3.201
-1.001 1.308 3.199
-0.991 1.307 3.196
-0.981 1.306 3.193
-0.972 1.304 3.191
-0.962 1.303 3.188
-0.953 1.302 3.185
-0.943 1.301 3.182
-0.934 1.299 3.179
-0.924 1.298 3.176
-0.914 1.297 3.173
-0.905 1.295 3.169
-0.895 1.294 3.166
-0.886 1.292 3.163
-0.876 1.291 3.159
-0.867 1.290 3.156
-0.857 1.288 3.153
-0.848 1.287 3.150
-0.838 1.285 3.146
-0.829 1.284 3.143
-0.820 1.282 3.139
-0.810 1.281 3.136
-0.801 1.280 3.133
-0.791 1.278 3.129
-0.782 1.277 3.126
-0.773 1.275 3.122
-0.763 1.274 3.119
-0.754 1.272 3.115
-0.745 1.270 3.111
-0.735 1.269 3.107
-0.726 1.267 3.103
-0.717 1.266 3.100
-0.707 1.264 3.096
-0.698 1.263 3.092
-0.689 1.261 3.088
-0.680 1.260 3.085
-0.670 1.258 3.080
-0.661 1.256 3.077
-0.652 1.255 3.073
-0.643 1.253 3.069
-0.634 1.252 3.065
-0.625 1.250 3.062
-0.616 1.249 3.058
-0.607 1.247 3.055
-0.598 1.246 3.052
-0.589 1.245 3.049
-0.580 1.243 3.046
-0.572 1.242 3.042
-0.563 1.241 3.039
-0.554 1.239 3.036
-0.545 1.238 3.032
-0.536 1.236 3.028
-0.527 1.234 3.024
-0.519 1.233 3.021
-0.510 1.232 3.018
-0.501 1.231 3.015
-0.492 1.229 3.011
-0.484 1.228 3.009
-0.475 1.227 3.006
-0.466 1.226 3.002
-0.458 1.224 2.999
-0.449 1.223 2.996
-0.441 1.221 2.992
-0.432 1.220 2.989
-0.423 1.219 2.986
-0.415 1.217 2.983
-0.407 1.216 2.980
-0.398 1.215 2.977
-0.390 1.214 2.973
-0.381 1.213 2.971
-0.373 1.211 2.968
-0.364 1.210 2.965
-0.356 1.209 2.962
-0.348 1.208 2.959
-0.339 1.207 2.957
-0.331 1.206 2.954
-0.323 1.204 2.951
-0.314 1.203 2.948
-0.306 1.202 2.944
-0.298 1.201 2.941
-0.290 1.199 2.938
-0.281 1.198 2.935
-0.273 1.197 2.932
-0.265 1.196 2.930
-0.257 1.195 2.927
-0.249 1.193 2.924
-0.240 1.192 2.921
-0.232 1.191 2.918
-0.224 1.190 2.916
-0.216 1.189 2.912
-0.208 1.187 2.909
-0.200 1.186 2.905
-0.192 1.184 2.902
-0.184 1.183 2.899
-0.176 1.181 2.895
-0.168 1.179 2.890
-0.159 1.177 2.883
-0.151 1.174 2.877
-0.143 1.172 2.872
-0.135 1.170 2.867
-0.127 1.168 2.863
-0.119 1.166 2.857
-0.111 1.164 2.851
-0.103 1.161 2.845
-0.096 1.159 2.839
-0.088 1.157 2.834
-0.080 1.155 2.830
-0.072 1.153 2.826
-0.064 1.152 2.823
-0.057 1.151 2.821
-0.049 1.150 2.819
-0.041 1.149 2.816
-0.034 1.148 2.813
-0.026 1.147 2.810
-0.019 1.146 2.808
-0.011 1.145 2.807
-0.003 1.144 2.804
0.004 1.143 2.801
0.012 1.142 2.798
0.019 1.142 2.797
0.027 1.141 2.795
0.034 1.140 2.793
0.042 1.139 2.791
0.049 1.138 2.789
0.057 1.138 2.787
0.064 1.137 2.786
0.072 1.136 2.783
0.079 1.135 2.782
0.087 1.135 2.780
0.094 1.134 2.779
0.102 1.133 2.777
0.109 1.133 2.775
0.117 1.132 2.774
0.124 1.131 2.772
0.131 1.131 2.770
0.139 1.130 2.769
0.146 1.129 2.766
0.154 1.128 2.765
0.161 1.128 2.763
0.168 1.127 2.761
0.176 1.126 2.759
0.183 1.125 2.756
0.190 1.124 2.754
0.198 1.123 2.752
0.205 1.122 2.749
0.212 1.121 2.747
0.219 1.120 2.745
0.227 1.119 2.743
0.234 1.118 2.740
0.241 1.118 2.738
0.248 1.116 2.735
0.255 1.116 2.733
0.263 1.115 2.731
0.270 1.114 2.729
0.277 1.113 2.726
0.284 1.112 2.724
0.291 1.111 2.721
0.298 1.110 2.719
0.305 1.109 2.718
0.313 1.109 2.716
0.320 1.108 2.714
0.327 1.107 2.713
0.334 1.106 2.710
0.341 1.105 2.708
0.348 1.104 2.706
0.355 1.104 2.704
0.362 1.103 2.702
0.369 1.102 2.700
0.376 1.101 2.698
0.383 1.100 2.695
0.390 1.099 2.693
0.397 1.098 2.691
0.404 1.097 2.688
0.411 1.097 2.687
0.418 1.096 2.684
0.425 1.095 2.682
0.432 1.094 2.679
0.438 1.093 2.677
0.445 1.092 2.675
0.452 1.091 2.673
0.459 1.090 2.671
0.466 1.089 2.669
0.473 1.088 2.666
0.480 1.087 2.664
0.486 1.087 2.662
0.493 1.086 2.660
0.500 1.085 2.659
0.507 1.085 2.657
0.514 1.084 2.655
0.521 1.083 2.652
0.527 1.081 2.649
0.533 1.080 2.645
0.540 1.079 2.642
0.547 1.078 2.639
0.553 1.077 2.637
0.560 1.076 2.634
0.566 1.075 2.632
0.573 1.073 2.628
0.579 1.072 2.624
0.586 1.071 2.622
0.592 1.070 2.619
0.599 1.069 2.617
0.605 1.068 2.615
0.612 1.067 2.612
0.618 1.065 2.607
0.623 1.063 2.602
0.629 1.060 2.596
0.635 1.058 2.591
0.641 1.056 2.586
0.647 1.055 2.583
0.653 1.054 2.579
0.659 1.053 2.577
0.668 1.055 2.582
0.677 1.059 2.592
0.686 1.062 2.599
0.693 1.062 2.599
0.700 1.061 2.597
0.706 1.060 2.595
0.713 1.059 2.592
0.719 1.058 2.590
0.725 1.057 2.588
0.732 1.057 2.585
0.738 1.056 2.584
0.745 1.055 2.581
0.751 1.054 2.579
0.757 1.053 2.576
0.764 1.052 2.574
0.770 1.051 2.571
0.776 1.050 2.569
0.783 1.049 2.567
0.789 1.049 2.565
0.795 1.048 2.563
0.801 1.047 2.560
0.808 1.046 2.557
0.814 1.045 2.555
0.820 1.044 2.553
0.826 1.043 2.550
0.832 1.042 2.547
0.838 1.041 2.545
0.844 1.040 2.542
0.851 1.039 2.540
0.857 1.038 2.537
0.863 1.037 2.535
0.869 1.036 2.533
0.875 1.036 2.531
0.881 1.035 2.528
0.888 1.034 2.526
0.894 1.033 2.524
0.900 1.032 2.521
0.906 1.031 2.519
0.912 1.030 2.517
0.918 1.030 2.514
0.924 1.029 2.512
0.930 1.028 2.510
0.936 1.027 2.508
0.942 1.027 2.506
0.949 1.026 2.504
0.955 1.025 2.502
0.960 1.024 2.499
0.966 1.023 2.496
0.972 1.022 2.494
0.978 1.022 2.492
0.985 1.021 2.490
0.990 1.020 2.488
0.996 1.019 2.486
1.003 1.019 2.483
1.009 1.018 2.481
1.014 1.017 2.479
1.020 1.016 2.477
1.026 1.015 2.474
1.032 1.015 2.472
1.038 1.014 2.470
1.044 1.013 2.468
1.050 1.012 2.466
1.056 1.011 2.463
1.062 1.011 2.461
1.067 1.010 2.458
1.073 1.009 2.456
1.079 1.008 2.453
1.085 1.007 2.452
1.091 1.007 2.449
1.097 1.006 2.447
1.103 1.006 2.446
1.109 1.005 2.444
1.115 1.005 2.443
1.121 1.004 2.441
1.128 1.004 2.439
1.133 1.003 2.437
1.140 1.003 2.436
1.145 1.002 2.433
1.151 1.001 2.431
1.157 1.000 2.429
1.163 1.000 2.427
1.169 0.999 2.425
1.175 0.998 2.423
1.180 0.998 2.420
1.186 0.997 2.419
1.192 0.996 2.416
1.198 0.996 2.415
1.204 0.995 2.413
1.210 0.995 2.411
1.216 0.994 2.409
1.222 0.994 2.407
1.227 0.993 2.405
1.233 0.992 2.403
1.239 0.992 2.401
1.245 0.991 2.399
1.251 0.991 2.397
1.257 0.990 2.395
1.263 0.990 2.393
1.269 0.989 2.391
1.275 0.989 2.390
1.280 0.988 2.387
1.286 0.987 2.385
1.291 0.987 2.382
1.297 0.986 2.380
1.303 0.986 2.378
1.309 0.985 2.376
1.314 0.984 2.374
1.320 0.984 2.371
1.326 0.983 2.370
1.332 0.983 2.368
1.338 0.982 2.366
1.344 0.982 2.364
1.350 0.981 2.362
1.355 0.981 2.360
1.361 0.980 2.358
1.366 0.979 2.355
1.372 0.979 2.354
1.378 0.979 2.351
1.384 0.978 2.349
1.389 0.977 2.346
1.394 0.976 2.343
1.400 0.976 2.341
1.405 0.975 2.338
1.411 0.974 2.336
1.417 0.974 2.335
1.424 0.974 2.334
1.428 0.973 2.330
1.433 0.972 2.326
1.438 0.971 2.323
1.444 0.970 2.321
1.449 0.970 2.318
1.456 0.970 2.317
1.461 0.969 2.315
1.467 0.969 2.313
1.472 0.968 2.310
1.477 0.967 2.307
1.483 0.966 2.304
1.488 0.966 2.302
1.494 0.965 2.299
1.498 0.964 2.295
1.504 0.964 2.293
1.510 0.963 2.291
1.515 0.963 2.288
1.520 0.961 2.284
1.525 0.961 2.281
1.530 0.960 2.279
1.535 0.959 2.276
1.541 0.959 2.273
1.545 0.958 2.270
1.551 0.957 2.267
1.554 0.955 2.261
1.558 0.954 2.257
1.564 0.954 2.255
1.573 0.955 2.257
1.576 0.953 2.251
1.583 0.953 2.250
1.588 0.953 2.248
0.000 0.000 0.000
0.000 0.000 0.000
0.000 0.000 0.000
0.000 0.000 0.000
0.000 0.000 0.000
0.000 0.000 0.000
0.000 0.000 0.000
0.000 0.000 0.000
0.000 0.000 0.000
0.000 0.000 0.000
0.000 0.000 0.000
0.000 0.000 0.000
0.000 0.000 0.000
0.000 0.000 0.000
0.000 0.000 0.000
0.000 0.000 0.000
0.000 0.000 0.000
0.000 0.000 0.000
0.000 0.000 0.000
0.000 0.000 0.000
0.000 0.000 0.000
0.000 0.000 0.000
0.000 0.000 0.000
0.000 0.000 0.000
0.000 0.000 0.000
0.000 0.000 0.000
0.000 0.000 0.000
0.000 0.000 0.000
0.000 0.000 0.000
0.000 0.000 0.000
0.000 0.000 0.000
0.000 0.000 0.000
0.000 0.000 0.000
0.000 0.000 0.000
-1.319 0.877 2.112
-1.317 0.879 2.118
-1.316 0.883 2.128
-1.314 0.886 2.135
-1.313 0.889 2.144
-1.315 0.894 2.157
-1.313 0.897 2.165
-1.312 0.901 2.175
-1.312 0.904 2.184
-1.311 0.908 2.194
-1.311 0.912 2.206
-1.310 0.916 2.215
-1.309 0.919 2.224
-1.307 0.922 2.232
-1.306 0.926 2.241
-1.304 0.929 2.249
-1.302 0.932 2.258
-1.300 0.935 2.266
-1.299 0.939 2.275
-1.297 0.942 2.285
-1.297 0.946 2.295
-1.296 0.950 2.306
-1.296 0.955 2.317
-1.295 0.959 2.328
-1.294 0.963 2.338
-1.292 0.967 2.348
-1.291 0.971 2.358
-1.287 0.972 2.363
-1.282 0.974 2.367
-1.279 0.976 2.374
-1.278 0.981 2.385
-1.280 0.987 2.401
-1.280 0.992 2.415
-1.279 0.996 2.426
-1.278 1.001 2.437
-1.278 1.006 2.450
-1.277 1.011 2.463
-1.277 1.016 2.476
-1.277 1.022 2.491
-1.278 1.027 2.505
-1.277 1.032 2.518
-1.275 1.037 2.529
-1.273 1.040 2.539
-1.272 1.045 2.552
-1.271 1.050 2.564
-1.271 1.056 2.578
-1.269 1.060 2.590
-1.268 1.065 2.602
-1.266 1.069 2.613
-1.264 1.074 2.624
-1.261 1.078 2.634
-1.258 1.081 2.643
-1.253 1.083 2.649
-1.249 1.086 2.657
-1.247 1.090 2.667
-1.245 1.095 2.680
-1.243 1.100 2.692
-1.242 1.105 2.705
-1.239 1.110 2.716
-1.237 1.114 2.728
-1.235 1.119 2.740
-1.233 1.124 2.754
-1.231 1.129 2.766
-1.229 1.134 2.778
-1.226 1.138 2.790
-1.224 1.144 2.803
-1.221 1.148 2.815
-1.219 1.153 2.828
-1.216 1.158 2.840
-1.214 1.163 2.852
-1.211 1.168 2.864
-1.208 1.173 2.876
-1.205 1.177 2.888
-1.202 1.182 2.900
-1.198 1.186 2.911
-1.195 1.190 2.922
-1.191 1.195 2.934
-1.188 1.200 2.946
-1.185 1.205 2.959
-1.182 1.210 2.972
-1.179 1.215 2.984
-1.176 1.220 2.997
-1.172 1.225 3.010
-1.169 1.230 3.022
-1.166 1.235 3.035
-1.162 1.240 3.048
-1.158 1.245 3.059
-1.153 1.249 3.069
-1.149 1.253 3.080
-1.144 1.257 3.091
-1.140 1.262 3.102
-1.136 1.266 3.113
-1.131 1.271 3.124
-1.126 1.275 3.135
-1.121 1.279 3.145
-1.116 1.283 3.155
-1.111 1.287 3.165
-1.106 1.290 3.174
-1.100 1.294 3.183
-1.094 1.297 3.190
-1.087 1.299 3.197
-1.080 1.301 3.202
-1.072 1.302 3.205
-1.064 1.303 3.206
-1.055 1.302 3.205
-1.046 1.302 3.205
-1.037 1.302 3.204
-1.028 1.301 3.202
-1.018 1.300 3.200
-1.009 1.299 3.198
-1.000 1.298 3.196
-0.990 1.297 3.195
-0.981 1.296 3.192
-0.971 1.295 3.189
-0.961 1.293 3.185
-0.952 1.292 3.182
-0.942 1.291 3.179
-0.933 1.290 3.177
-0.923 1.289 3.174
-0.914 1.287 3.171
-0.904 1.286 3.167
-0.895 1.284 3.163
-0.885 1.283 3.160
-0.876 1.281 3.157
-0.866 1.280 3.153
-0.857 1.278 3.150
-0.847 1.277 3.147
-0.838 1.276 3.144
-0.828 1.275 3.141
-0.819 1.273 3.137
-0.810 1.272 3.134
-0.800 1.270 3.130
-0.791 1.269 3.127
-0.782 1.267 3.124
-0.772 1.266 3.120
-0.763 1.265 3.117
-0.753 1.263 3.113
-0.744 1.261 3.109
-0.735 1.260 3.105
-0.726 1.258 3.102
-0.716 1.257 3.098
-0.707 1.255 3.094
-0.698 1.253 3.090
-0.688 1.252 3.086
-0.679 1.250 3.082
-0.670 1.248 3.078
-0.661 1.247 3.074
-0.652 1.245 3.070
-0.643 1.244 3.067
-0.633 1.242 3.063
-0.624 1.241 3.059
-0.615 1.239 3.056
-0.606 1.238 3.052
-0.598 1.237 3.049
-0.589 1.235 3.046
-0.580 1.234 3.044
-0.571 1.233 3.040
-0.562 1.232 3.037
-0.553 1.230 3.033
-0.545 1.229 3.030
-0.536 1.227 3.026
-0.527 1.226 3.022
-0.518 1.224 3.020
-0.509 1.223 3.016
-0.501 1.222 3.013
-0.492 1.221 3.010
-0.484 1.219 3.007
-0.475 1.218 3.004
-0.466 1.217 3.001
-0.458 1.215 2.998
-0.449 1.214 2.994
-0.440 1.213 2.991
-0.432 1.211 2.987
-0.423 1.210 2.984
-0.415 1.209 2.981
-0.406 1.207 2.978
-0.398 1.206 2.975
-0.389 1.205 2.971
-0.381 1.203 2.968
-0.372 1.202 2.965
-0.364 1.201 2.962
-0.356 1.200 2.959
-0.347 1.199 2.956
-0.339 1.198 2.954
-0.331 1.197 2.951
-0.322 1.195 2.948
-0.314 1.194 2.945
-0.306 1.193 2.942
-0.298 1.191 2.938
-0.289 1.190 2.936
-0.281 1.189 2.932
-0.273 1.188 2.930
-0.265 1.187 2.927
-0.257 1.185 2.924
-0.248 1.184 2.921
-0.240 1.183 2.918
-0.232 1.182 2.915
-0.224 1.181 2.912
-0.216 1.179 2.908
-0.208 1.177 2.904
-0.199 1.175 2.899
-0.191 1.173 2.893
-0.183 1.171 2.888
-0.175 1.169 2.882
-0.167 1.166 2.876
-0.159 1.163 2.869
-0.151 1.161 2.863
-0.143 1.159 2.858
-0.135 1.157 2.853
-0.127 1.155 2.849
-0.119 1.153 2.844
-0.111 1.151 2.840
-0.103 1.149 2.835
-0.095 1.148 2.832
-0.088 1.147 2.829
-0.080 1.146 2.827
-0.072 1.145 2.824
-0.064 1.144 2.822
-0.057 1.143 2.820
-0.049 1.143 2.818
-0.041 1.142 2.816
-0.034 1.141 2.813
-0.026 1.139 2.810
-0.019 1.139 2.809
-0.011 1.138 2.807
-0.003 1.137 2.805
0.004 1.136 2.802
0.012 1.135 2.800
0.019 1.134 2.798
0.027 1.134 2.796
0.034 1.133 2.794
0.042 1.132 2.792
0.049 1.131 2.790
0.057 1.131 2.789
0.064 1.130 2.787
0.072 1.129 2.785
0.079 1.128 2.783
0.087 1.128 2.782
0.094 1.127 2.780
0.102 1.127 2.779
0.109 1.126 2.776
0.117 1.125 2.775
0.124 1.124 2.773
0.132 1.124 2.772
0.139 1.123 2.769
0.146 1.122 2.767
0.154 1.121 2.765
0.161 1.120 2.763
0.168 1.119 2.760
0.176 1.118 2.758
0.183 1.117 2.755
0.190 1.116 2.753
0.197 1.115 2.750
0.205 1.114 2.748
0.212 1.113 2.746
0.219 1.112 2.744
0.227 1.112 2.742
0.234 1.111 2.739
0.241 1.110 2.737
0.248 1.109 2.735
0.255 1.108 2.732
0.262 1.107 2.730
0.270 1.106 2.728
0.277 1.105 2.726
0.284 1.105 2.724
0.291 1.104 2.722
0.298 1.103 2.720
0.305 1.102 2.718
0.313 1.101 2.717
0.320 1.101 2.715
0.327 1.100 2.712
0.334 1.099 2.710
0.341 1.098 2.707
0.348 1.097 2.705
0.355 1.096 2.704
0.362 1.095 2.701
0.369 1.094 2.699
0.376 1.093 2.697
0.383 1.093 2.694
0.390 1.092 2.692
0.397 1.091 2.690
0.404 1.090 2.687
0.411 1.089 2.685
0.418 1.088 2.682
0.425 1.087 2.681
0.432 1.086 2.679
0.438 1.086 2.677
0.445 1.084 2.674
0.452 1.083 2.672
0.459 1.083 2.670
0.466 1.082 2.668
0.473 1.081 2.667
0.480 1.081 2.665
0.487 1.080 2.664
0.494 1.080 2.663
0.501 1.080 2.662
0.508 1.079 2.661
0.515 1.078 2.659
0.521 1.076 2.654
0.527 1.074 2.648
0.533 1.072 2.643
0.540 1.071 2.640
0.546 1.070 2.637
0.553 1.069 2.635
0.560 1.068 2.633
0.566 1.067 2.631
0.573 1.066 2.627
0.579 1.064 2.623
0.585 1.063 2.620
0.592 1.062 2.618
0.598 1.061 2.616
0.605 1.060 2.613
0.612 1.059 2.611
0.617 1.057 2.606
0.623 1.055 2.601
0.629 1.053 2.595
0.635 1.051 2.590
0.641 1.049 2.586
0.647 1.048 2.582
0.653 1.046 2.579
0.659 1.045 2.576
0.667 1.047 2.580
0.676 1.050 2.588
0.685 1.054 2.596
0.693 1.054 2.598
0.700 1.054 2.596
0.706 1.053 2.594
0.712 1.052 2.591
0.719 1.051 2.588
0.725 1.050 2.586
0.731 1.049 2.584
0.738 1.048 2.582
0.744 1.047 2.580
0.751 1.047 2.578
0.757 1.045 2.575
0.763 1.044 2.573
0.769 1.043 2.570
0.776 1.043 2.568
0.782 1.042 2.566
0.789 1.041 2.564
0.795 1.040 2.561
0.801 1.039 2.558
0.807 1.038 2.556
0.813 1.037 2.553
0.819 1.036 2.551
0.826 1.035 2.548
0.832 1.034 2.546
0.838 1.034 2.544
0.844 1.032 2.541
0.850 1.032 2.539
0.856 1.031 2.536
0.862 1.030 2.534
0.869 1.029 2.532
0.875 1.028 2.530
0.881 1.027 2.527
0.887 1.027 2.525
0.893 1.026 2.523
0.899 1.025 2.520
0.905 1.024 2.518
0.911 1.023 2.516
0.917 1.022 2.513
0.923 1.021 2.511
0.930 1.021 2.509
0.936 1.020 2.506
0.942 1.019 2.505
0.948 1.018 2.502
0.954 1.017 2.500
0.960 1.016 2.497
0.966 1.016 2.495
0.972 1.015 2.493
0.978 1.015 2.492
0.984 1.014 2.489
0.990 1.013 2.486
0.996 1.012 2.484
1.002 1.011 2.482
1.008 1.010 2.480
1.014 1.010 2.478
1.020 1.009 2.476
1.026 1.008 2.473
1.032 1.007 2.472
1.038 1.007 2.469
1.044 1.006 2.467
1.049 1.005 2.464
1.055 1.004 2.462
1.061 1.003 2.460
1.067 1.003 2.458
1.073 1.002 2.456
1.079 1.001 2.453
1.085 1.000 2.451
1.091 1.000 2.449
1.097 0.999 2.447
1.103 0.999 2.445
1.108 0.998 2.443
1.114 0.997 2.441
1.120 0.997 2.439
1.127 0.996 2.438
1.133 0.996 2.437
1.139 0.995 2.435
1.145 0.994 2.432
1.150 0.994 2.430
1.156 0.993 2.427
1.162 0.992 2.425
1.168 0.992 2.424
1.174 0.991 2.422
1.180 0.990 2.419
1.186 0.990 2.418
1.191 0.989 2.416
1.198 0.989 2.414
1.203 0.988 2.412
1.209 0.988 2.410
1.215 0.987 2.408
1.221 0.987 2.406
1.227 0.986 2.404
1.233 0.985 2.402
1.239 0.985 2.400
1.245 0.984 2.399
1.251 0.984 2.397
1.256 0.983 2.395
1.262 0.983 2.392
1.268 0.982 2.390
1.274 0.982 2.388
1.280 0.981 2.387
1.286 0.981 2.385
1.291 0.980 2.383
1.297 0.979 2.380
1.302 0.979 2.378
1.308 0.978 2.375
1.313 0.977 2.372
1.319 0.977 2.371
1.325 0.976 2.369
1.331 0.975 2.366
1.336 0.975 2.364
1.343 0.974 2.363
1.349 0.974 2.362
1.355 0.974 2.360
1.360 0.973 2.357
1.365 0.972 2.354
1.371 0.972 2.352
1.377 0.971 2.350
1.383 0.971 2.348
1.388 0.970 2.345
1.393 0.969 2.342
1.399 0.969 2.340
1.405 0.968 2.338
1.410 0.968 2.336
1.416 0.967 2.334
1.422 0.967 2.332
1.427 0.966 2.329
1.432 0.965 2.326
1.438 0.964 2.324
1.444 0.964 2.322
1.449 0.963 2.318
1.454 0.962 2.316
1.460 0.962 2.314
1.466 0.962 2.312
1.472 0.961 2.310
1.477 0.960 2.307
1.481 0.959 2.303
1.486 0.958 2.300
1.491 0.957 2.296
1.497 0.957 2.293
1.502 0.956 2.291
1.509 0.956 2.290
1.514 0.956 2.288
1.519 0.954 2.284
1.524 0.954 2.281
1.529 0.953 2.278
1.536 0.953 2.277
1.540 0.952 2.273
1.546 0.951 2.271
1.548 0.949 2.264
1.553 0.948 2.260
1.557 0.947 2.255
1.564 0.947 2.256
1.570 0.947 2.253
1.577 0.947 2.253
1.575 0.942 2.240
1.585 0.945 2.244
0.000 0.000 0.000
0.000 0.000 0.000
0.000 0.000 0.000
0.000 0.000 0.000
0.000 0.000 0.000
0.000 0.000 0.000
0.000 0.000 0.000
0.000 0.000 0.000
0.000 0.000 0.000
0.000 0.000 0.000
0.000 0.000 0.000
0.000 0.000 0.000
0.000 0.000 0.000
0.000 0.000 0.000
0.000 0.000 0.000
0.000 0.000 0.000
0.000 0.000 0.000
0.000 0.000 0.000
0.000 0.000 0.000
0.000 0.000 0.000
0.000 0.000 0.000
0.000 0.000 0.000
0.000 0.000 0.000
0.000 0.000 0.000
0.000 0.000 0.000
0.000 0.000 0.000
0.000 0.000 0.000
0.000 0.000 0.000
0.000 0.000 0.000
0.000 0.000 0.000
0.000 0.000 0.000
0.000 0.000 0.000
0.000 0.000 0.000
0.000 0.000 0.000
-1.318 0.871 2.111
-1.317 0.874 2.119
-1.318 0.878 2.131
-1.316 0.881 2.139
-1.313 0.883 2.145
-1.312 0.887 2.154
-1.313 0.891 2.166
-1.312 0.894 2.175
-1.311 0.898 2.184
-1.310 0.901 2.193
-1.309 0.905 2.203
-1.310 0.910 2.215
-1.309 0.913 2.224
-1.307 0.916 2.232
-1.305 0.919 2.240
-1.303 0.922 2.249
-1.302 0.926 2.257
-1.300 0.929 2.266
-1.299 0.932 2.275
-1.298 0.936 2.285
-1.297 0.940 2.296
-1.295 0.943 2.305
-1.294 0.947 2.315
-1.293 0.951 2.324
-1.291 0.954 2.334
-1.291 0.959 2.346
-1.289 0.963 2.356
-1.286 0.965 2.362
-1.281 0.966 2.366
-1.278 0.969 2.373
-1.278 0.974 2.385
-1.279 0.980 2.400
-1.279 0.985 2.413
-1.278 0.989 2.424
-1.277 0.993 2.435
-1.276 0.998 2.447
-1.276 1.003 2.461
-1.275 1.008 2.473
-1.276 1.014 2.489
-1.276 1.020 2.503
-1.276 1.025 2.517
-1.274 1.028 2.526
