ply
format ascii 1.0
comment VCGLIB generated
element vertex 2460
property float x
property float y
property float z
end_header
0.051 -0.094 0.705
0.053 -0.094 0.706
0.055 -0.094 0.707
0.057 -0.094 0.709
0.059 -0.094 0.710
0.061 -0.095 0.711
0.063 -0.095 0.712
0.065 -0.095 0.713
0.067 -0.095 0.714
0.069 -0.095 0.716
0.071 -0.095 0.717
0.073 -0.096 0.719
0.075 -0.096 0.722
0.078 -0.097 0.726
0.080 -0.097 0.731
0.083 -0.098 0.738
0.086 -0.099 0.746
0.089 -0.100 0.755
0.092 -0.101 0.763
0.095 -0.102 0.769
0.098 -0.103 0.774
0.100 -0.103 0.778
0.103 -0.104 0.781
0.105 -0.104 0.785
0.108 -0.105 0.787
0.110 -0.105 0.788
0.112 -0.105 0.788
0.114 -0.105 0.787
0.116 -0.104 0.781
0.113 -0.100 0.752
0.108 -0.094 0.707
0.106 -0.091 0.682
0.106 -0.089 0.670
0.107 -0.088 0.663
0.108 -0.088 0.658
0.109 -0.087 0.655
0.111 -0.087 0.653
0.112 -0.087 0.653
0.114 -0.087 0.653
0.117 -0.087 0.656
0.120 -0.089 0.666
0.127 -0.092 0.695
0.133 -0.095 0.715
0.135 -0.095 0.715
0.135 -0.094 0.706
0.135 -0.092 0.696
0.135 -0.091 0.686
0.135 -0.090 0.679
0.136 -0.089 0.673
0.137 -0.089 0.668
0.138 -0.088 0.664
0.139 -0.088 0.660
0.140 -0.087 0.656
0.141 -0.087 0.653
0.142 -0.086 0.649
0.143 -0.086 0.646
0.144 -0.086 0.644
0.145 -0.085 0.641
0.146 -0.085 0.639
0.147 -0.085 0.637
0.149 -0.084 0.634
0.150 -0.084 0.632
0.151 -0.084 0.630
0.152 -0.083 0.628
0.153 -0.083 0.626
0.155 -0.083 0.625
0.156 -0.083 0.623
0.157 -0.083 0.622
0.159 -0.082 0.621
0.160 -0.082 0.620
0.162 -0.082 0.619
0.163 -0.082 0.618
0.164 -0.082 0.617
0.166 -0.082 0.616
0.167 -0.082 0.615
0.169 -0.082 0.614
0.170 -0.081 0.613
0.172 -0.081 0.612
0.173 -0.081 0.611
0.174 -0.081 0.611
0.176 -0.081 0.610
0.177 -0.081 0.610
0.179 -0.081 0.609
0.180 -0.081 0.609
0.182 -0.081 0.608
0.184 -0.081 0.608
0.185 -0.081 0.607
0.186 -0.081 0.607
0.188 -0.081 0.607
0.190 -0.080 0.607
0.191 -0.080 0.606
0.193 -0.080 0.606
0.194 -0.080 0.606
0.196 -0.080 0.605
0.197 -0.080 0.604
0.199 -0.080 0.604
0.200 -0.080 0.604
0.202 -0.080 0.604
0.203 -0.080 0.603
0.205 -0.080 0.603
0.206 -0.080 0.603
0.208 -0.080 0.603
0.210 -0.080 0.603
0.211 -0.080 0.604
0.213 -0.080 0.603
0.215 -0.080 0.604
0.216 -0.080 0.603
0.218 -0.080 0.604
0.220 -0.080 0.604
0.222 -0.080 0.605
0.223 -0.080 0.604
0.225 -0.080 0.604
0.227 -0.080 0.605
0.228 -0.080 0.605
0.230 -0.080 0.606
0.232 -0.080 0.607
0.234 -0.081 0.607
0.236 -0.081 0.608
0.238 -0.081 0.608
0.240 -0.081 0.609
0.241 -0.081 0.609
0.243 -0.081 0.610
0.245 -0.081 0.611
0.248 -0.081 0.612
0.251 -0.082 0.616
0.254 -0.082 0.619
0.000 0.000 0.000
0.000 0.000 0.000
0.000 0.000 0.000
0.000 0.000 0.000
0.000 0.000 0.000
0.000 0.000 0.000
0.000 0.000 0.000
0.000 0.000 0.000
0.000 0.000 0.000
0.000 0.000 0.000
0.000 0.000 0.000
0.000 0.000 0.000
0.000 0.000 0.000
0.000 0.000 0.000
0.000 0.000 0.000
0.000 0.000 0.000
0.000 0.000 0.000
1.200 -0.347 2.616
1.207 -0.347 2.615
1.214 -0.347 2.614
1.221 -0.347 2.614
1.228 -0.347 2.613
1.235 -0.347 2.613
1.241 -0.347 2.611
1.248 -0.347 2.611
1.255 -0.347 2.610
1.262 -0.347 2.609
1.268 -0.346 2.608
1.274 -0.346 2.606
1.281 -0.346 2.606
1.288 -0.346 2.604
1.295 -0.346 2.604
1.302 -0.346 2.603
1.309 -0.346 2.603
1.315 -0.346 2.602
1.322 -0.346 2.601
1.329 -0.346 2.600
1.336 -0.346 2.599
1.342 -0.345 2.597
1.348 -0.345 2.596
1.355 -0.345 2.595
1.362 -0.345 2.595
1.369 -0.345 2.593
1.375 -0.345 2.592
1.381 -0.345 2.590
1.388 -0.345 2.590
1.395 -0.345 2.588
1.402 -0.345 2.588
1.408 -0.344 2.586
1.414 -0.344 2.584
1.420 -0.344 2.582
1.427 -0.344 2.582
1.434 -0.344 2.581
1.442 -0.344 2.582
1.448 -0.344 2.580
1.455 -0.344 2.579
1.461 -0.344 2.577
1.468 -0.344 2.577
1.475 -0.344 2.576
1.481 -0.343 2.574
1.488 -0.343 2.573
1.493 -0.343 2.570
1.500 -0.343 2.569
1.506 -0.343 2.567
1.513 -0.343 2.565
1.519 -0.342 2.563
1.525 -0.342 2.562
1.532 -0.342 2.561
1.539 -0.342 2.560
1.545 -0.342 2.557
1.551 -0.342 2.556
1.558 -0.342 2.555
1.565 -0.342 2.554
1.572 -0.342 2.554
1.578 -0.342 2.552
1.584 -0.342 2.550
1.590 -0.341 2.547
1.597 -0.341 2.546
1.603 -0.341 2.544
1.610 -0.341 2.543
1.616 -0.341 2.541
1.623 -0.341 2.542
1.630 -0.341 2.541
1.637 -0.341 2.540
1.643 -0.341 2.537
1.649 -0.341 2.536
1.655 -0.340 2.534
1.663 -0.341 2.533
1.669 -0.340 2.532
1.676 -0.340 2.531
1.681 -0.340 2.527
1.687 -0.340 2.525
1.694 -0.340 2.524
1.701 -0.340 2.524
1.708 -0.340 2.521
1.714 -0.340 2.520
1.721 -0.340 2.518
1.727 -0.340 2.517
1.734 -0.340 2.516
1.740 -0.339 2.514
0.000 0.000 0.000
0.000 0.000 0.000
-0.426 -0.083 0.600
-0.425 -0.083 0.601
-0.424 -0.083 0.603
-0.422 -0.083 0.602
-0.420 -0.083 0.601
-0.418 -0.083 0.601
-0.418 -0.083 0.603
-0.416 -0.083 0.604
-0.415 -0.083 0.606
-0.413 -0.083 0.605
-0.412 -0.083 0.606
-0.410 -0.083 0.606
-0.409 -0.083 0.607
-0.408 -0.083 0.607
-0.406 -0.084 0.608
-0.404 -0.083 0.608
-0.402 -0.083 0.608
-0.400 -0.083 0.607
-0.399 -0.083 0.608
-0.397 -0.083 0.608
-0.396 -0.083 0.608
-0.394 -0.083 0.608
-0.392 -0.083 0.609
-0.392 -0.084 0.611
-0.392 -0.084 0.614
-0.392 -0.084 0.617
-0.392 -0.085 0.620
-0.392 -0.085 0.622
-0.391 -0.085 0.624
-0.391 -0.086 0.627
-0.391 -0.086 0.629
-0.390 -0.086 0.631
-0.390 -0.087 0.634
-0.390 -0.087 0.637
-0.390 -0.087 0.640
-0.390 -0.088 0.642
-0.390 -0.088 0.645
-0.389 -0.088 0.648
-0.389 -0.089 0.651
-0.389 -0.089 0.653
-0.388 -0.089 0.655
-0.388 -0.090 0.658
-0.388 -0.090 0.661
-0.388 -0.090 0.664
-0.387 -0.091 0.666
-0.387 -0.091 0.669
-0.386 -0.091 0.672
-0.386 -0.092 0.674
-0.385 -0.092 0.676
-0.385 -0.092 0.679
-0.384 -0.093 0.681
-0.383 -0.093 0.682
-0.381 -0.093 0.682
-0.374 -0.092 0.674
-0.361 -0.089 0.653
-0.338 -0.084 0.615
-0.324 -0.080 0.592
-0.319 -0.080 0.586
-0.318 -0.080 0.587
-0.320 -0.081 0.594
-0.323 -0.082 0.603
-0.322 -0.082 0.604
-0.319 -0.082 0.602
-0.317 -0.081 0.600
-0.314 -0.081 0.598
-0.311 -0.081 0.597
-0.309 -0.081 0.595
-0.307 -0.081 0.594
-0.305 -0.081 0.594
-0.303 -0.081 0.593
-0.301 -0.080 0.592
-0.299 -0.080 0.591
-0.296 -0.080 0.590
-0.294 -0.080 0.589
-0.292 -0.080 0.588
-0.291 -0.080 0.588
-0.289 -0.080 0.588
-0.287 -0.080 0.587
-0.285 -0.079 0.586
-0.283 -0.079 0.586
-0.282 -0.080 0.587
-0.280 -0.080 0.587
-0.279 -0.079 0.586
-0.277 -0.079 0.586
-0.275 -0.079 0.586
-0.274 -0.079 0.586
-0.272 -0.079 0.586
-0.270 -0.079 0.586
-0.269 -0.079 0.587
-0.267 -0.079 0.586
-0.266 -0.079 0.587
-0.264 -0.079 0.587
-0.263 -0.080 0.588
-0.261 -0.080 0.588
-0.260 -0.080 0.588
-0.259 -0.080 0.588
-0.257 -0.080 0.589
-0.256 -0.080 0.589
-0.254 -0.080 0.590
-0.253 -0.080 0.590
-0.251 -0.080 0.590
-0.250 -0.080 0.591
-0.249 -0.080 0.592
-0.247 -0.080 0.592
-0.246 -0.080 0.592
-0.244 -0.080 0.593
-0.243 -0.080 0.594
-0.242 -0.080 0.594
-0.240 -0.081 0.595
-0.239 -0.081 0.595
-0.238 -0.081 0.596
-0.236 -0.081 0.596
-0.235 -0.081 0.597
-0.233 -0.081 0.598
-0.232 -0.081 0.599
-0.231 -0.081 0.600
-0.230 -0.081 0.601
-0.228 -0.081 0.601
-0.227 -0.082 0.603
-0.226 -0.082 0.604
-0.225 -0.082 0.605
-0.223 -0.082 0.606
-0.222 -0.082 0.607
-0.221 -0.082 0.608
-0.220 -0.083 0.610
-0.219 -0.083 0.611
-0.218 -0.083 0.613
-0.217 -0.083 0.614
-0.216 -0.083 0.617
-0.215 -0.084 0.618
-0.214 -0.084 0.620
-0.213 -0.084 0.622
-0.212 -0.085 0.624
-0.211 -0.085 0.627
-0.210 -0.085 0.629
-0.209 -0.086 0.632
-0.209 -0.086 0.635
-0.208 -0.086 0.638
-0.207 -0.087 0.642
-0.207 -0.087 0.646
-0.207 -0.088 0.650
-0.207 -0.089 0.656
-0.207 -0.090 0.661
-0.206 -0.090 0.666
-0.204 -0.090 0.665
-0.201 -0.089 0.659
-0.198 -0.089 0.658
-0.196 -0.089 0.657
-0.193 -0.088 0.653
-0.189 -0.087 0.644
-0.187 -0.087 0.643
-0.185 -0.087 0.643
-0.184 -0.088 0.646
-0.184 -0.088 0.651
-0.184 -0.089 0.659
-0.189 -0.093 0.683
-0.198 -0.098 0.723
-0.205 -0.102 0.754
-0.206 -0.104 0.765
-0.204 -0.104 0.765
-0.201 -0.103 0.763
-0.198 -0.103 0.759
-0.195 -0.102 0.753
-0.191 -0.101 0.748
-0.189 -0.101 0.746
-0.186 -0.101 0.743
-0.183 -0.100 0.741
-0.181 -0.100 0.738
-0.178 -0.100 0.735
-0.175 -0.099 0.731
-0.172 -0.098 0.726
-0.169 -0.098 0.721
-0.166 -0.097 0.716
-0.163 -0.097 0.713
-0.161 -0.096 0.711
-0.158 -0.096 0.710
-0.156 -0.096 0.706
-0.151 -0.094 0.695
-0.147 -0.093 0.683
-0.144 -0.092 0.677
-0.142 -0.091 0.675
-0.139 -0.091 0.674
-0.138 -0.091 0.673
-0.136 -0.091 0.673
-0.134 -0.091 0.673
-0.132 -0.091 0.673
-0.130 -0.091 0.673
-0.128 -0.091 0.672
-0.126 -0.091 0.671
-0.124 -0.091 0.671
-0.123 -0.091 0.671
-0.121 -0.091 0.671
-0.119 -0.091 0.672
-0.117 -0.091 0.673
-0.116 -0.091 0.674
-0.114 -0.091 0.673
-0.112 -0.091 0.671
-0.110 -0.091 0.671
-0.108 -0.091 0.671
-0.106 -0.091 0.671
-0.105 -0.091 0.671
-0.103 -0.091 0.672
-0.101 -0.091 0.672
-0.099 -0.091 0.672
-0.097 -0.091 0.671
-0.095 -0.091 0.670
-0.094 -0.091 0.671
-0.092 -0.091 0.672
-0.090 -0.091 0.672
-0.088 -0.091 0.673
-0.087 -0.091 0.674
-0.085 -0.092 0.675
-0.083 -0.092 0.674
-0.081 -0.091 0.674
-0.079 -0.091 0.674
-0.078 -0.091 0.674
-0.076 -0.091 0.673
-0.074 -0.091 0.673
-0.072 -0.091 0.673
-0.070 -0.091 0.673
-0.068 -0.091 0.673
-0.067 -0.091 0.673
-0.065 -0.091 0.672
-0.063 -0.091 0.672
-0.061 -0.091 0.673
-0.059 -0.091 0.672
-0.057 -0.091 0.671
-0.055 -0.091 0.670
-0.054 -0.091 0.670
-0.052 -0.091 0.670
-0.050 -0.091 0.670
-0.048 -0.091 0.670
-0.046 -0.091 0.670
-0.044 -0.091 0.670
-0.043 -0.091 0.671
-0.041 -0.091 0.671
-0.039 -0.091 0.672
-0.037 -0.091 0.673
-0.036 -0.091 0.673
-0.034 -0.092 0.674
-0.032 -0.092 0.675
-0.030 -0.092 0.677
-0.028 -0.092 0.678
-0.027 -0.092 0.678
-0.025 -0.092 0.678
-0.023 -0.092 0.679
-0.021 -0.092 0.680
-0.019 -0.093 0.681
-0.017 -0.093 0.682
-0.016 -0.093 0.683
-0.014 -0.093 0.684
-0.012 -0.093 0.685
-0.010 -0.093 0.686
-0.008 -0.093 0.686
-0.006 -0.093 0.688
-0.005 -0.094 0.688
-0.003 -0.094 0.689
-0.001 -0.093 0.688
0.001 -0.093 0.688
0.003 -0.093 0.687
0.005 -0.093 0.688
0.007 -0.093 0.688
0.009 -0.094 0.689
0.010 -0.093 0.688
0.012 -0.093 0.688
0.014 -0.093 0.687
0.016 -0.093 0.687
0.018 -0.093 0.687
0.020 -0.094 0.689
0.022 -0.094 0.690
0.024 -0.094 0.691
0.025 -0.094 0.691
0.027 -0.094 0.692
0.029 -0.094 0.693
0.031 -0.094 0.695
0.033 -0.094 0.696
0.035 -0.095 0.697
0.037 -0.095 0.697
0.039 -0.095 0.698
0.041 -0.095 0.699
0.043 -0.095 0.701
0.045 -0.095 0.702
0.047 -0.096 0.704
0.049 -0.096 0.705
0.051 -0.096 0.705
0.053 -0.096 0.706
0.055 -0.096 0.707
0.057 -0.096 0.708
0.059 -0.096 0.710
0.061 -0.097 0.711
0.063 -0.097 0.712
0.065 -0.097 0.713
0.067 -0.097 0.715
0.069 -0.097 0.717
0.071 -0.098 0.719
0.074 -0.098 0.722
0.076 -0.099 0.726
0.078 -0.099 0.731
0.081 -0.100 0.738
0.084 -0.101 0.746
0.087 -0.102 0.754
0.090 -0.103 0.762
0.093 -0.104 0.768
0.095 -0.105 0.772
0.098 -0.105 0.776
0.100 -0.106 0.780
0.103 -0.106 0.784
0.106 -0.107 0.786
0.108 -0.107 0.787
0.110 -0.107 0.788
0.112 -0.107 0.789
0.114 -0.107 0.787
0.115 -0.105 0.776
0.111 -0.100 0.738
0.108 -0.095 0.703
0.106 -0.092 0.681
0.106 -0.090 0.667
0.106 -0.089 0.659
0.107 -0.089 0.655
0.109 -0.088 0.651
0.110 -0.088 0.650
0.112 -0.088 0.649
0.114 -0.088 0.650
0.116 -0.088 0.651
0.118 -0.089 0.656
0.124 -0.092 0.678
0.132 -0.096 0.710
0.135 -0.097 0.716
0.136 -0.096 0.709
0.135 -0.095 0.699
0.135 -0.093 0.689
0.136 -0.092 0.681
0.136 -0.091 0.674
0.137 -0.091 0.669
0.138 -0.090 0.665
0.139 -0.090 0.660
0.140 -0.089 0.657
0.141 -0.089 0.653
0.142 -0.088 0.650
0.143 -0.088 0.646
0.144 -0.087 0.644
0.145 -0.087 0.641
0.146 -0.087 0.639
0.147 -0.086 0.637
0.149 -0.086 0.635
0.150 -0.086 0.632
0.151 -0.085 0.631
0.152 -0.085 0.628
0.154 -0.085 0.627
0.155 -0.085 0.625
0.156 -0.084 0.623
0.157 -0.084 0.622
0.159 -0.084 0.620
0.160 -0.084 0.619
0.162 -0.084 0.618
0.163 -0.084 0.617
0.164 -0.083 0.616
0.166 -0.083 0.614
0.167 -0.083 0.614
0.168 -0.083 0.613
0.170 -0.083 0.613
0.171 -0.083 0.611
0.173 -0.083 0.611
0.174 -0.083 0.610
0.176 -0.083 0.610
0.177 -0.082 0.609
0.179 -0.082 0.609
0.180 -0.082 0.608
0.182 -0.082 0.608
0.183 -0.082 0.607
0.185 -0.082 0.607
0.186 -0.082 0.607
0.188 -0.082 0.607
0.189 -0.082 0.606
0.191 -0.082 0.606
0.192 -0.082 0.605
0.194 -0.082 0.605
0.195 -0.082 0.604
0.197 -0.082 0.603
0.198 -0.082 0.603
0.200 -0.082 0.603
0.201 -0.082 0.602
0.203 -0.082 0.602
0.204 -0.081 0.602
0.206 -0.082 0.602
0.208 -0.081 0.602
0.209 -0.082 0.602
0.211 -0.082 0.602
0.213 -0.082 0.602
0.214 -0.082 0.602
0.216 -0.082 0.602
0.218 -0.082 0.602
0.219 -0.082 0.603
0.221 -0.082 0.602
0.223 -0.082 0.603
0.224 -0.082 0.603
0.226 -0.082 0.603
0.228 -0.082 0.604
0.230 -0.082 0.604
0.231 -0.082 0.604
0.233 -0.082 0.605
0.235 -0.082 0.605
0.237 -0.082 0.606
0.238 -0.082 0.606
0.240 -0.082 0.607
0.242 -0.082 0.607
0.244 -0.082 0.608
0.246 -0.082 0.609
0.249 -0.083 0.611
0.252 -0.083 0.616
0.255 -0.084 0.618
0.000 0.000 0.000
0.000 0.000 0.000
0.000 0.000 0.000
0.000 0.000 0.000
0.000 0.000 0.000
0.000 0.000 0.000
0.000 0.000 0.000
0.000 0.000 0.000
0.000 0.000 0.000
0.000 0.000 0.000
0.000 0.000 0.000
0.000 0.000 0.000
0.000 0.000 0.000
0.000 0.000 0.000
0.000 0.000 0.000
0.000 0.000 0.000
1.199 -0.354 2.613
1.206 -0.354 2.612
1.213 -0.354 2.611
1.220 -0.354 2.612
1.226 -0.354 2.610
1.233 -0.354 2.609
1.239 -0.353 2.607
1.246 -0.353 2.607
1.253 -0.353 2.606
1.260 -0.353 2.605
1.266 -0.353 2.604
1.273 -0.353 2.603
1.280 -0.353 2.603
1.287 -0.353 2.602
1.293 -0.353 2.601
1.300 -0.353 2.600
1.307 -0.353 2.600
1.314 -0.353 2.599
1.321 -0.353 2.598
1.327 -0.352 2.597
1.334 -0.352 2.596
1.340 -0.352 2.594
1.347 -0.352 2.593
1.354 -0.352 2.592
1.361 -0.352 2.592
1.367 -0.352 2.590
1.374 -0.352 2.589
1.380 -0.351 2.587
1.387 -0.351 2.587
1.393 -0.351 2.586
1.400 -0.351 2.585
1.407 -0.351 2.583
1.413 -0.351 2.581
1.419 -0.351 2.580
1.426 -0.351 2.579
1.433 -0.351 2.579
1.440 -0.351 2.578
1.446 -0.351 2.577
1.453 -0.350 2.575
1.459 -0.350 2.574
1.466 -0.350 2.573
1.473 -0.350 2.573
1.479 -0.350 2.571
1.486 -0.350 2.570
1.492 -0.350 2.567
1.499 -0.350 2.566
1.505 -0.349 2.564
1.512 -0.349 2.563
1.517 -0.349 2.561
1.524 -0.349 2.559
1.530 -0.349 2.557
1.537 -0.349 2.556
1.543 -0.349 2.555
1.550 -0.349 2.554
1.557 -0.349 2.553
1.564 -0.349 2.552
1.570 -0.348 2.550
1.576 -0.348 2.548
1.582 -0.348 2.546
1.589 -0.348 2.545
1.595 -0.348 2.544
1.602 -0.348 2.542
1.608 -0.348 2.541
1.615 -0.348 2.539
1.621 -0.348 2.538
1.628 -0.347 2.537
1.635 -0.347 2.536
1.641 -0.347 2.533
1.647 -0.347 2.533
1.655 -0.347 2.532
1.661 -0.347 2.531
1.667 -0.347 2.529
1.673 -0.347 2.526
1.679 -0.347 2.524
1.685 -0.346 2.521
1.693 -0.347 2.522
1.700 -0.346 2.521
1.706 -0.346 2.519
1.712 -0.346 2.517
1.719 -0.346 2.516
1.726 -0.346 2.515
1.733 -0.346 2.514
1.739 -0.346 2.511
0.000 0.000 0.000
0.000 0.000 0.000
-0.427 -0.085 0.601
-0.425 -0.085 0.601
-0.424 -0.085 0.602
-0.422 -0.085 0.602
-0.419 -0.085 0.601
-0.418 -0.085 0.601
-0.417 -0.085 0.603
-0.416 -0.085 0.604
-0.415 -0.085 0.604
-0.413 -0.085 0.605
-0.412 -0.085 0.606
-0.410 -0.085 0.606
-0.409 -0.085 0.607
-0.407 -0.085 0.607
-0.406 -0.085 0.608
-0.404 -0.085 0.608
-0.402 -0.085 0.608
-0.400 -0.085 0.607
-0.398 -0.085 0.607
-0.397 -0.085 0.607
-0.395 -0.085 0.607
-0.393 -0.085 0.607
-0.392 -0.085 0.608
-0.391 -0.085 0.610
-0.391 -0.086 0.613
-0.392 -0.086 0.616
-0.392 -0.086 0.619
-0.391 -0.087 0.622
-0.391 -0.087 0.624
-0.391 -0.087 0.627
-0.391 -0.088 0.629
-0.390 -0.088 0.631
-0.390 -0.088 0.634
-0.389 -0.089 0.636
-0.389 -0.089 0.638
-0.389 -0.089 0.641
-0.389 -0.090 0.644
-0.389 -0.090 0.648
-0.389 -0.091 0.651
-0.389 -0.091 0.653
-0.388 -0.091 0.656
-0.388 -0.092 0.659
-0.388 -0.092 0.661
-0.388 -0.092 0.664
-0.387 -0.093 0.667
-0.387 -0.093 0.670
-0.387 -0.093 0.672
-0.386 -0.094 0.675
-0.386 -0.094 0.678
-0.386 -0.094 0.680
-0.385 -0.095 0.682
-0.384 -0.095 0.684
-0.383 -0.095 0.686
-0.381 -0.095 0.686
-0.378 -0.095 0.684
-0.368 -0.093 0.669
-0.346 -0.088 0.633
-0.325 -0.083 0.598
-0.320 -0.082 0.592
-0.324 -0.083 0.601
-0.324 -0.084 0.605
-0.321 -0.084 0.603
-0.318 -0.083 0.600
-0.315 -0.083 0.598
-0.313 -0.083 0.596
-0.311 -0.082 0.595
-0.308 -0.082 0.594
-0.306 -0.082 0.593
-0.304 -0.082 0.592
-0.302 -0.082 0.591
-0.300 -0.082 0.590
-0.298 -0.082 0.589
-0.295 -0.081 0.588
-0.294 -0.081 0.587
-0.292 -0.081 0.587
-0.290 -0.081 0.586
-0.288 -0.081 0.586
-0.286 -0.081 0.586
-0.284 -0.081 0.585
-0.283 -0.081 0.585
-0.281 -0.081 0.585
-0.280 -0.081 0.585
-0.278 -0.081 0.585
-0.276 -0.081 0.585
-0.275 -0.081 0.585
-0.273 -0.081 0.585
-0.272 -0.081 0.585
-0.270 -0.081 0.585
-0.268 -0.081 0.585
-0.267 -0.081 0.585
-0.265 -0.081 0.585
-0.264 -0.081 0.586
-0.263 -0.081 0.586
-0.261 -0.081 0.587
-0.260 -0.081 0.587
-0.258 -0.081 0.588
-0.257 -0.081 0.588
-0.256 -0.081 0.589
-0.254 -0.081 0.589
-0.253 -0.081 0.590
-0.251 -0.081 0.590
-0.250 -0.082 0.590
-0.248 -0.082 0.591
-0.247 -0.082 0.591
-0.245 -0.082 0.591
-0.244 -0.082 0.592
-0.243 -0.082 0.593
-0.242 -0.082 0.594
-0.240 -0.082 0.594
-0.239 -0.082 0.595
-0.237 -0.082 0.595
-0.236 -0.082 0.596
-0.235 -0.082 0.596
-0.233 -0.082 0.597
-0.232 -0.083 0.598
-0.231 -0.083 0.599
-0.230 -0.083 0.600
-0.228 -0.083 0.601
-0.227 -0.083 0.602
-0.226 -0.083 0.603
-0.225 -0.083 0.604
-0.223 -0.084 0.605
-0.222 -0.084 0.606
-0.221 -0.084 0.608
-0.220 -0.084 0.609
-0.219 -0.084 0.611
-0.218 -0.085 0.612
-0.217 -0.085 0.615
-0.216 -0.085 0.616
-0.215 -0.085 0.619
-0.214 -0.086 0.621
-0.213 -0.086 0.623
-0.212 -0.086 0.625
-0.211 -0.087 0.627
-0.210 -0.087 0.630
-0.210 -0.087 0.633
-0.209 -0.088 0.635
-0.208 -0.088 0.639
-0.208 -0.089 0.643
-0.207 -0.089 0.647
-0.207 -0.090 0.652
-0.207 -0.091 0.657
-0.207 -0.092 0.663
-0.207 -0.092 0.667
-0.204 -0.092 0.664
-0.200 -0.091 0.659
-0.198 -0.091 0.658
-0.196 -0.090 0.655
-0.192 -0.090 0.648
-0.188 -0.089 0.641
-0.186 -0.088 0.640
-0.184 -0.088 0.641
-0.184 -0.089 0.643
-0.183 -0.090 0.649
-0.184 -0.091 0.656
-0.187 -0.093 0.676
-0.196 -0.099 0.715
-0.204 -0.103 0.749
-0.205 -0.106 0.764
-0.204 -0.106 0.765
-0.201 -0.105 0.763
-0.198 -0.105 0.760
-0.195 -0.104 0.754
-0.192 -0.104 0.749
-0.188 -0.103 0.745
-0.186 -0.103 0.742
-0.183 -0.102 0.740
-0.181 -0.102 0.738
-0.178 -0.102 0.735
-0.175 -0.101 0.732
-0.172 -0.101 0.728
-0.169 -0.100 0.724
-0.166 -0.099 0.719
-0.164 -0.099 0.716
-0.162 -0.099 0.715
-0.159 -0.099 0.714
-0.156 -0.098 0.707
-0.151 -0.096 0.693
-0.147 -0.094 0.682
-0.144 -0.094 0.678
-0.142 -0.093 0.676
-0.140 -0.093 0.675
-0.138 -0.093 0.674
-0.136 -0.093 0.674
-0.134 -0.093 0.674
-0.132 -0.093 0.674
-0.130 -0.093 0.674
-0.129 -0.093 0.673
-0.126 -0.093 0.672
-0.125 -0.093 0.672
-0.123 -0.093 0.672
-0.121 -0.093 0.672
-0.119 -0.093 0.673
-0.118 -0.093 0.673
-0.116 -0.093 0.674
-0.114 -0.093 0.674
-0.112 -0.093 0.672
-0.110 -0.093 0.672
-0.108 -0.093 0.671
-0.106 -0.093 0.672
-0.105 -0.093 0.671
-0.103 -0.093 0.672
-0.101 -0.093 0.672
-0.099 -0.093 0.673
-0.097 -0.093 0.672
-0.095 -0.093 0.671
-0.094 -0.093 0.671
-0.092 -0.093 0.672
-0.090 -0.093 0.672
-0.088 -0.093 0.672
-0.086 -0.093 0.672
-0.085 -0.093 0.673
-0.083 -0.093 0.673
-0.081 -0.093 0.673
-0.079 -0.093 0.672
-0.077 -0.093 0.673
-0.076 -0.093 0.672
-0.074 -0.093 0.672
-0.072 -0.093 0.672
-0.070 -0.093 0.673
-0.068 -0.093 0.672
-0.066 -0.093 0.673
-0.065 -0.093 0.671
-0.063 -0.093 0.671
-0.061 -0.093 0.670
-0.059 -0.093 0.669
-0.057 -0.092 0.667
-0.055 -0.092 0.667
-0.053 -0.092 0.668
-0.052 -0.092 0.668
-0.050 -0.092 0.668
-0.048 -0.092 0.668
-0.046 -0.092 0.668
-0.044 -0.092 0.668
-0.042 -0.093 0.668
-0.041 -0.093 0.668
-0.039 -0.093 0.669
-0.037 -0.093 0.669
-0.035 -0.093 0.670
-0.034 -0.093 0.672
-0.032 -0.093 0.673
-0.030 -0.093 0.674
-0.028 -0.093 0.675
-0.026 -0.094 0.675
-0.025 -0.094 0.676
-0.023 -0.094 0.677
-0.021 -0.094 0.678
-0.019 -0.094 0.680
-0.017 -0.094 0.681
-0.016 -0.095 0.683
-0.014 -0.095 0.683
-0.012 -0.095 0.684
-0.010 -0.095 0.685
-0.008 -0.095 0.686
-0.006 -0.095 0.687
-0.005 -0.095 0.687
-0.003 -0.095 0.688
-0.001 -0.095 0.688
0.001 -0.095 0.688
0.003 -0.095 0.687
0.005 -0.095 0.687
0.007 -0.095 0.687
0.008 -0.095 0.686
0.010 -0.095 0.687
0.012 -0.095 0.688
0.014 -0.095 0.688
0.016 -0.095 0.687
0.018 -0.095 0.688
0.020 -0.095 0.688
0.022 -0.096 0.690
0.024 -0.096 0.690
0.025 -0.096 0.691
0.027 -0.096 0.692
0.029 -0.096 0.693
0.031 -0.096 0.693
0.033 -0.096 0.695
0.035 -0.096 0.696
0.037 -0.096 0.696
0.039 -0.096 0.696
0.041 -0.096 0.697
0.043 -0.097 0.698
0.045 -0.097 0.701
0.047 -0.097 0.703
0.049 -0.098 0.705
0.051 -0.098 0.705
0.053 -0.098 0.706
0.055 -0.098 0.706
0.057 -0.098 0.708
0.059 -0.098 0.710
0.061 -0.099 0.712
0.063 -0.099 0.713
0.065 -0.099 0.715
0.067 -0.099 0.717
0.069 -0.100 0.719
0.072 -0.100 0.723
0.074 -0.101 0.727
0.076 -0.101 0.732
0.079 -0.102 0.739
0.082 -0.103 0.746
0.085 -0.104 0.754
0.088 -0.105 0.761
0.091 -0.106 0.767
0.093 -0.107 0.771
0.096 -0.107 0.775
0.098 -0.108 0.778
0.101 -0.108 0.782
0.103 -0.109 0.785
0.106 -0.109 0.787
0.108 -0.109 0.788
0.110 -0.109 0.788
0.112 -0.109 0.789
0.114 -0.109 0.785
0.113 -0.106 0.764
0.109 -0.100 0.724
0.107 -0.097 0.700
0.106 -0.094 0.682
0.105 -0.092 0.664
0.106 -0.091 0.656
0.107 -0.090 0.652
0.108 -0.090 0.649
0.110 -0.089 0.647
0.111 -0.089 0.646
0.113 -0.089 0.646
0.115 -0.090 0.648
0.117 -0.090 0.651
0.121 -0.092 0.664
0.130 -0.097 0.699
0.135 -0.099 0.716
0.136 -0.099 0.713
0.136 -0.097 0.704
0.136 -0.096 0.693
0.136 -0.095 0.684
0.137 -0.094 0.676
0.137 -0.093 0.671
0.138 -0.092 0.666
0.139 -0.092 0.662
0.140 -0.091 0.658
0.141 -0.090 0.654
0.142 -0.090 0.651
0.143 -0.090 0.647
0.144 -0.089 0.645
0.145 -0.089 0.642
0.146 -0.088 0.640
0.148 -0.088 0.637
0.149 -0.088 0.635
0.150 -0.087 0.633
0.151 -0.087 0.631
0.152 -0.087 0.629
0.154 -0.087 0.627
0.155 -0.086 0.625
0.156 -0.086 0.623
0.158 -0.086 0.622
0.159 -0.086 0.620
0.160 -0.086 0.619
0.161 -0.085 0.618
0.163 -0.085 0.617
0.164 -0.085 0.615
0.166 -0.085 0.614
0.167 -0.085 0.614
0.168 -0.085 0.613
0.170 -0.085 0.612
0.171 -0.084 0.611
0.173 -0.084 0.610
0.174 -0.084 0.610
0.176 -0.084 0.610
0.177 -0.084 0.610
0.179 -0.084 0.609
0.180 -0.084 0.609
0.182 -0.084 0.608
0.183 -0.084 0.607
0.185 -0.084 0.606
0.186 -0.084 0.606
0.188 -0.084 0.606
0.189 -0.084 0.605
0.191 -0.084 0.605
0.192 -0.083 0.604
0.194 -0.083 0.604
0.195 -0.083 0.603
0.197 -0.083 0.603
0.198 -0.083 0.603
0.200 -0.083 0.603
0.201 -0.083 0.602
0.203 -0.083 0.602
0.204 -0.083 0.602
0.206 -0.083 0.601
0.207 -0.083 0.601
0.209 -0.083 0.601
0.211 -0.083 0.601
0.212 -0.083 0.601
0.214 -0.083 0.601
0.215 -0.083 0.601
0.217 -0.083 0.601
0.219 -0.083 0.601
0.220 -0.083 0.601
0.222 -0.083 0.601
0.224 -0.083 0.601
0.225 -0.083 0.601
0.227 -0.083 0.602
0.229 -0.083 0.602
0.231 -0.083 0.603
0.232 -0.083 0.603
0.234 -0.083 0.603
0.236 -0.083 0.604
0.238 -0.083 0.605
0.240 -0.084 0.605
0.242 -0.084 0.606
0.244 -0.084 0.607
0.246 -0.084 0.607
0.248 -0.084 0.608
0.250 -0.084 0.610
0.254 -0.085 0.615
0.000 0.000 0.000
0.000 0.000 0.000
0.000 0.000 0.000
0.000 0.000 0.000
0.000 0.000 0.000
0.000 0.000 0.000
0.000 0.000 0.000
0.000 0.000 0.000
0.000 0.000 0.000
0.000 0.000 0.000
0.000 0.000 0.000
0.000 0.000 0.000
0.000 0.000 0.000
0.000 0.000 0.000
0.000 0.000 0.000
0.000 0.000 0.000
0.000 0.000 0.000
1.204 -0.360 2.608
1.211 -0.360 2.607
1.218 -0.360 2.607
1.224 -0.360 2.605
1.231 -0.360 2.605
1.238 -0.360 2.604
1.245 -0.360 2.604
1.251 -0.360 2.602
1.258 -0.360 2.602
1.265 -0.360 2.601
1.272 -0.360 2.600
1.279 -0.360 2.600
1.285 -0.359 2.598
1.292 -0.359 2.597
1.298 -0.359 2.597
1.306 -0.359 2.596
1.312 -0.359 2.596
1.319 -0.359 2.595
1.326 -0.359 2.594
1.332 -0.359 2.592
1.339 -0.359 2.591
1.346 -0.359 2.590
1.352 -0.359 2.589
1.359 -0.359 2.589
1.365 -0.358 2.587
1.372 -0.358 2.587
1.379 -0.358 2.585
1.386 -0.358 2.585
1.392 -0.358 2.583
1.399 -0.358 2.582
1.405 -0.358 2.581
1.412 -0.358 2.579
1.418 -0.357 2.577
1.425 -0.357 2.577
1.431 -0.357 2.576
1.438 -0.357 2.575
1.445 -0.357 2.574
1.452 -0.357 2.573
1.458 -0.357 2.571
1.465 -0.357 2.571
1.472 -0.357 2.570
1.478 -0.357 2.569
1.485 -0.357 2.567
1.491 -0.356 2.565
1.497 -0.356 2.563
1.503 -0.356 2.562
1.510 -0.356 2.560
1.516 -0.356 2.558
1.522 -0.356 2.556
1.528 -0.355 2.554
1.535 -0.355 2.553
1.541 -0.355 2.552
1.548 -0.355 2.551
1.555 -0.355 2.551
1.562 -0.355 2.549
1.568 -0.355 2.548
1.574 -0.355 2.546
1.581 -0.355 2.545
1.587 -0.355 2.543
1.594 -0.354 2.541
1.600 -0.354 2.539
1.607 -0.354 2.539
1.613 -0.354 2.537
1.620 -0.354 2.535
1.626 -0.354 2.533
1.632 -0.354 2.532
1.638 -0.354 2.530
1.646 -0.354 2.530
1.653 -0.354 2.529
1.659 -0.354 2.527
1.665 -0.353 2.525
1.671 -0.353 2.523
1.677 -0.353 2.521
1.683 -0.353 2.519
1.691 -0.353 2.518
1.698 -0.353 2.518
1.705 -0.353 2.517
1.711 -0.353 2.515
1.718 -0.353 2.514
1.725 -0.353 2.513
1.730 -0.353 2.510
1.736 -0.352 2.507
0.000 0.000 0.000
0.000 0.000 0.000
-0.426 -0.086 0.600
-0.424 -0.086 0.600
-0.423 -0.086 0.600
-0.421 -0.086 0.600
-0.419 -0.086 0.600
-0.417 -0.086 0.600
-0.417 -0.086 0.602
-0.416 -0.086 0.603
-0.415 -0.087 0.604
-0.413 -0.087 0.605
-0.412 -0.087 0.606
-0.410 -0.087 0.606
-0.409 -0.087 0.606
-0.407 -0.087 0.606
-0.405 -0.087 0.607
-0.404 -0.087 0.607
-0.402 -0.087 0.607
-0.400 -0.087 0.606
-0.398 -0.086 0.606
-0.396 -0.086 0.606
-0.394 -0.086 0.606
-0.393 -0.086 0.607
-0.392 -0.087 0.608
-0.391 -0.087 0.610
-0.391 -0.087 0.612
-0.391 -0.088 0.616
-0.391 -0.088 0.618
-0.391 -0.088 0.621
-0.391 -0.089 0.624
-0.391 -0.089 0.627
-0.391 -0.090 0.630
-0.391 -0.090 0.632
-0.390 -0.090 0.634
-0.390 -0.090 0.636
-0.389 -0.091 0.638
-0.389 -0.091 0.641
-0.389 -0.091 0.644
-0.389 -0.092 0.647
-0.389 -0.092 0.650
-0.388 -0.093 0.652
-0.388 -0.093 0.655
-0.388 -0.093 0.658
-0.388 -0.094 0.661
-0.388 -0.094 0.664
-0.388 -0.095 0.668
-0.387 -0.095 0.670
-0.387 -0.095 0.672
-0.386 -0.096 0.675
-0.386 -0.096 0.677
-0.386 -0.096 0.680
-0.385 -0.097 0.683
-0.384 -0.097 0.685
-0.383 -0.097 0.687
-0.382 -0.097 0.688
-0.381 -0.097 0.689
-0.378 -0.097 0.688
-0.370 -0.096 0.677
-0.345 -0.090 0.634
-0.330 -0.086 0.610
-0.327 -0.086 0.606
-0.324 -0.085 0.605
-0.320 -0.085 0.601
-0.317 -0.084 0.598
-0.314 -0.084 0.596
-0.312 -0.084 0.595
-0.310 -0.084 0.594
-0.308 -0.084 0.593
-0.306 -0.084 0.592
-0.304 -0.083 0.591
-0.302 -0.083 0.590
-0.299 -0.083 0.589
-0.297 -0.083 0.588
-0.295 -0.083 0.587
-0.293 -0.083 0.586
-0.291 -0.083 0.586
-0.289 -0.083 0.586
-0.288 -0.083 0.585
-0.286 -0.082 0.585
-0.284 -0.082 0.584
-0.282 -0.082 0.584
-0.281 -0.082 0.585
-0.279 -0.082 0.584
-0.278 -0.082 0.585
-0.276 -0.082 0.584
-0.274 -0.082 0.584
-0.273 -0.082 0.584
-0.271 -0.082 0.585
-0.270 -0.082 0.585
-0.268 -0.082 0.585
-0.267 -0.082 0.585
-0.265 -0.082 0.585
-0.264 -0.082 0.585
-0.262 -0.083 0.586
-0.261 -0.083 0.586
-0.260 -0.083 0.587
-0.258 -0.083 0.587
-0.257 -0.083 0.588
-0.255 -0.083 0.588
-0.254 -0.083 0.589
-0.253 -0.083 0.589
-0.251 -0.083 0.589
-0.249 -0.083 0.589
-0.248 -0.083 0.590
-0.247 -0.083 0.591
-0.245 -0.083 0.591
-0.244 -0.083 0.592
-0.243 -0.083 0.593
-0.241 -0.084 0.593
-0.240 -0.084 0.594
-0.239 -0.084 0.594
-0.237 -0.084 0.595
-0.236 -0.084 0.595
-0.235 -0.084 0.597
-0.233 -0.084 0.597
-0.232 -0.084 0.598
-0.231 -0.084 0.599
-0.230 -0.085 0.601
-0.228 -0.085 0.601
-0.227 -0.085 0.603
-0.226 -0.085 0.603
-0.225 -0.085 0.604
-0.223 -0.085 0.605
-0.222 -0.085 0.607
-0.221 -0.086 0.608
-0.220 -0.086 0.610
-0.219 -0.086 0.611
-0.218 -0.086 0.614
-0.217 -0.087 0.615
-0.216 -0.087 0.617
-0.215 -0.087 0.619
-0.214 -0.087 0.621
-0.213 -0.088 0.623
-0.212 -0.088 0.625
-0.211 -0.088 0.628
-0.211 -0.089 0.631
-0.210 -0.089 0.633
-0.209 -0.090 0.636
-0.208 -0.090 0.639
-0.208 -0.091 0.643
-0.208 -0.091 0.648
-0.207 -0.092 0.653
-0.207 -0.093 0.659
-0.208 -0.094 0.665
-0.207 -0.094 0.669
-0.204 -0.093 0.664
-0.201 -0.093 0.659
-0.198 -0.093 0.657
-0.195 -0.092 0.651
-0.190 -0.091 0.643
-0.187 -0.090 0.638
-0.186 -0.090 0.638
-0.184 -0.090 0.638
-0.183 -0.090 0.642
-0.183 -0.091 0.646
-0.183 -0.092 0.655
-0.186 -0.094 0.670
-0.194 -0.100 0.707
-0.202 -0.105 0.742
-0.205 -0.107 0.762
-0.204 -0.108 0.765
-0.201 -0.108 0.764
-0.198 -0.107 0.760
-0.195 -0.106 0.755
-0.192 -0.106 0.750
-0.189 -0.105 0.745
-0.186 -0.105 0.742
-0.183 -0.104 0.740
-0.181 -0.104 0.737
-0.178 -0.104 0.735
-0.175 -0.103 0.732
-0.173 -0.103 0.729
-0.170 -0.102 0.725
-0.167 -0.102 0.722
-0.164 -0.101 0.719
-0.163 -0.101 0.719
-0.160 -0.101 0.717
-0.156 -0.100 0.707
-0.151 -0.097 0.691
-0.147 -0.096 0.682
-0.144 -0.096 0.678
-0.142 -0.095 0.677
-0.140 -0.095 0.676
-0.138 -0.095 0.676
-0.136 -0.095 0.675
-0.134 -0.095 0.676
-0.133 -0.095 0.676
-0.131 -0.095 0.675
-0.128 -0.095 0.673
-0.126 -0.095 0.672
-0.125 -0.095 0.672
-0.123 -0.095 0.672
-0.121 -0.095 0.673
-0.119 -0.095 0.673
-0.118 -0.095 0.674
-0.116 -0.095 0.675
-0.114 -0.095 0.674
-0.112 -0.095 0.673
-0.110 -0.095 0.672
-0.108 -0.095 0.672
-0.106 -0.095 0.672
-0.105 -0.095 0.672
-0.103 -0.095 0.673
-0.101 -0.095 0.673
-0.099 -0.095 0.673
-0.097 -0.095 0.672
-0.095 -0.095 0.671
-0.094 -0.095 0.672
-0.092 -0.095 0.672
-0.090 -0.095 0.672
-0.088 -0.095 0.672
-0.086 -0.095 0.672
-0.085 -0.095 0.672
-0.083 -0.095 0.672
-0.081 -0.095 0.672
-0.079 -0.095 0.671
-0.077 -0.095 0.671
-0.075 -0.095 0.670
-0.073 -0.095 0.670
-0.072 -0.095 0.671
-0.070 -0.095 0.672
-0.068 -0.095 0.672
-0.066 -0.095 0.671
-0.064 -0.095 0.671
-0.063 -0.095 0.670
-0.061 -0.094 0.669
-0.059 -0.094 0.668
-0.057 -0.094 0.667
-0.055 -0.094 0.667
-0.053 -0.094 0.667
-0.051 -0.094 0.667
-0.050 -0.094 0.667
-0.048 -0.094 0.667
-0.046 -0.094 0.667
-0.044 -0.094 0.667
-0.042 -0.094 0.667
-0.041 -0.094 0.668
-0.039 -0.094 0.668
-0.037 -0.094 0.668
-0.035 -0.094 0.669
-0.033 -0.095 0.669
-0.032 -0.095 0.671
-0.030 -0.095 0.671
-0.028 -0.095 0.672
-0.026 -0.095 0.672
-0.025 -0.095 0.673
-0.023 -0.095 0.674
-0.021 -0.095 0.676
-0.019 -0.096 0.678
-0.017 -0.096 0.680
-0.016 -0.096 0.682
-0.014 -0.097 0.684
-0.012 -0.097 0.685
-0.010 -0.097 0.686
-0.008 -0.097 0.686
-0.006 -0.097 0.686
-0.005 -0.097 0.686
-0.003 -0.097 0.687
-0.001 -0.097 0.687
0.001 -0.097 0.688
0.003 -0.097 0.688
0.005 -0.097 0.688
0.007 -0.097 0.687
0.008 -0.097 0.687
0.010 -0.097 0.687
0.012 -0.097 0.688
0.014 -0.097 0.688
0.016 -0.097 0.688
0.018 -0.097 0.688
0.020 -0.097 0.689
0.022 -0.097 0.690
0.024 -0.098 0.691
0.025 -0.098 0.692
0.027 -0.098 0.693
0.029 -0.098 0.693
0.031 -0.098 0.694
0.033 -0.098 0.695
0.035 -0.098 0.696
0.037 -0.098 0.696
0.039 -0.098 0.697
0.041 -0.099 0.698
0.043 -0.099 0.699
0.045 -0.099 0.700
0.047 -0.099 0.702
0.049 -0.099 0.704
0.051 -0.100 0.706
0.053 -0.100 0.707
0.055 -0.100 0.708
0.057 -0.100 0.710
0.059 -0.101 0.713
0.061 -0.101 0.715
0.063 -0.101 0.717
0.065 -0.102 0.719
0.068 -0.102 0.722
0.070 -0.102 0.725
0.072 -0.103 0.730
0.075 -0.104 0.735
0.077 -0.105 0.741
0.080 -0.105 0.747
0.083 -0.106 0.754
0.086 -0.107 0.761
0.088 -0.108 0.766
0.091 -0.109 0.770
0.093 -0.109 0.773
0.096 -0.110 0.777
0.099 -0.110 0.781
0.101 -0.111 0.784
0.103 -0.111 0.786
0.106 -0.111 0.787
0.108 -0.111 0.788
0.110 -0.111 0.789
0.112 -0.111 0.790
0.114 -0.111 0.783
0.111 -0.106 0.751
0.107 -0.100 0.711
0.107 -0.098 0.697
0.106 -0.096 0.683
0.106 -0.094 0.665
0.105 -0.092 0.653
0.106 -0.092 0.649
0.108 -0.091 0.645
0.109 -0.091 0.643
0.110 -0.091 0.642
0.112 -0.091 0.643
0.114 -0.091 0.645
0.117 -0.091 0.647
0.120 -0.092 0.653
0.127 -0.096 0.683
0.134 -0.100 0.712
0.137 -0.101 0.715
0.137 -0.100 0.707
0.137 -0.098 0.696
0.137 -0.097 0.686
0.137 -0.096 0.679
0.138 -0.095 0.672
0.138 -0.094 0.667
0.139 -0.093 0.663
0.140 -0.093 0.659
0.141 -0.092 0.655
0.142 -0.092 0.651
0.143 -0.091 0.648
0.144 -0.091 0.645
0.145 -0.091 0.642
0.147 -0.090 0.640
0.148 -0.090 0.637
0.149 -0.090 0.635
0.150 -0.089 0.633
0.151 -0.089 0.632
0.153 -0.089 0.629
0.154 -0.088 0.627
0.155 -0.088 0.626
0.156 -0.088 0.624
0.158 -0.088 0.622
0.159 -0.087 0.621
0.160 -0.087 0.619
0.161 -0.087 0.618
0.163 -0.087 0.616
0.164 -0.087 0.615
0.165 -0.086 0.614
0.167 -0.086 0.613
0.168 -0.086 0.612
0.170 -0.086 0.611
0.171 -0.086 0.610
0.173 -0.086 0.610
0.174 -0.086 0.609
0.176 -0.086 0.610
0.177 -0.086 0.609
0.179 -0.086 0.609
0.180 -0.086 0.608
0.182 -0.086 0.607
0.183 -0.085 0.607
0.184 -0.085 0.606
0.186 -0.085 0.605
0.187 -0.085 0.605
0.189 -0.085 0.604
0.190 -0.085 0.604
0.192 -0.085 0.603
0.193 -0.085 0.603
0.195 -0.085 0.602
0.197 -0.085 0.603
0.198 -0.085 0.602
0.200 -0.085 0.602
0.201 -0.085 0.601
0.202 -0.085 0.601
0.204 -0.085 0.601
0.205 -0.085 0.600
0.207 -0.084 0.600
0.208 -0.084 0.600
0.210 -0.084 0.599
0.212 -0.084 0.600
0.213 -0.084 0.599
0.215 -0.084 0.600
0.217 -0.084 0.600
0.218 -0.084 0.599
0.219 -0.084 0.599
0.221 -0.084 0.599
0.223 -0.084 0.599
0.225 -0.084 0.599
0.226 -0.084 0.600
0.228 -0.084 0.600
0.230 -0.084 0.600
0.231 -0.085 0.600
0.233 -0.085 0.601
0.235 -0.085 0.601
0.237 -0.085 0.602
0.239 -0.085 0.603
0.241 -0.085 0.603
0.243 -0.085 0.604
0.245 -0.085 0.605
0.247 -0.085 0.606
0.249 -0.085 0.607
0.252 -0.086 0.611
0.254 -0.086 0.612
0.000 0.000 0.000
0.000 0.000 0.000
0.000 0.000 0.000
0.000 0.000 0.000
0.000 0.000 0.000
0.000 0.000 0.000
0.000 0.000 0.000
0.000 0.000 0.000
0.000 0.000 0.000
0.000 0.000 0.000
0.000 0.000 0.000
0.000 0.000 0.000
0.000 0.000 0.000
0.000 0.000 0.000
0.000 0.000 0.000
0.000 0.000 0.000
0.000 0.000 0.000
1.209 -0.367 2.604
1.216 -0.367 2.603
1.222 -0.367 2.602
1.229 -0.367 2.602
1.236 -0.367 2.600
1.243 -0.366 2.600
1.250 -0.366 2.599
1.256 -0.366 2.598
1.263 -0.366 2.598
1.270 -0.366 2.597
1.277 -0.366 2.596
1.283 -0.366 2.595
1.290 -0.366 2.594
1.297 -0.366 2.593
1.303 -0.366 2.592
1.310 -0.366 2.591
1.317 -0.366 2.591
1.324 -0.365 2.590
1.330 -0.365 2.589
1.337 -0.365 2.587
1.344 -0.365 2.587
1.350 -0.365 2.586
1.357 -0.365 2.585
1.363 -0.365 2.583
1.370 -0.365 2.583
1.377 -0.365 2.582
1.384 -0.365 2.581
1.390 -0.365 2.580
1.397 -0.364 2.579
1.403 -0.364 2.577
1.410 -0.364 2.576
1.417 -0.364 2.575
1.423 -0.364 2.574
1.430 -0.364 2.573
1.437 -0.364 2.572
1.443 -0.364 2.571
1.450 -0.364 2.570
1.456 -0.364 2.568
1.463 -0.363 2.567
1.470 -0.363 2.567
1.477 -0.363 2.566
1.483 -0.363 2.564
1.489 -0.363 2.562
1.496 -0.363 2.561
1.502 -0.363 2.559
1.509 -0.363 2.558
1.514 -0.362 2.555
1.521 -0.362 2.554
1.527 -0.362 2.552
1.534 -0.362 2.551
1.540 -0.362 2.549
1.547 -0.362 2.548
1.553 -0.362 2.547
1.560 -0.362 2.546
1.567 -0.362 2.545
1.573 -0.361 2.543
1.579 -0.361 2.542
1.586 -0.361 2.540
1.592 -0.361 2.538
1.598 -0.361 2.536
1.605 -0.361 2.535
1.611 -0.361 2.534
1.617 -0.361 2.532
1.624 -0.360 2.530
1.630 -0.360 2.528
1.636 -0.360 2.527
1.643 -0.360 2.526
1.650 -0.360 2.525
1.657 -0.360 2.523
1.663 -0.360 2.522
1.669 -0.360 2.520
1.676 -0.360 2.518
1.681 -0.359 2.515
1.688 -0.359 2.514
1.694 -0.359 2.512
1.702 -0.359 2.512
1.708 -0.359 2.511
1.716 -0.359 2.510
1.721 -0.359 2.507
1.728 -0.359 2.506
1.731 -0.358 2.500
0.000 0.000 0.000
0.000 0.000 0.000
-0.427 -0.088 0.601
-0.425 -0.088 0.601
-0.423 -0.088 0.600
-0.420 -0.088 0.599
-0.419 -0.088 0.600
-0.417 -0.088 0.600
-0.417 -0.088 0.602
-0.416 -0.088 0.603
-0.414 -0.088 0.604
-0.413 -0.088 0.604
-0.411 -0.088 0.605
-0.410 -0.088 0.605
-0.408 -0.088 0.606
-0.407 -0.088 0.606
-0.405 -0.088 0.607
-0.404 -0.088 0.607
-0.402 -0.088 0.607
-0.399 -0.088 0.606
-0.397 -0.088 0.605
-0.395 -0.088 0.605
-0.393 -0.088 0.605
-0.392 -0.088 0.606
-0.391 -0.088 0.607
-0.391 -0.089 0.610
-0.391 -0.089 0.612
-0.391 -0.089 0.615
-0.391 -0.090 0.617
-0.391 -0.090 0.620
-0.390 -0.090 0.623
-0.390 -0.091 0.625
-0.390 -0.091 0.628
-0.390 -0.091 0.631
-0.390 -0.092 0.634
-0.390 -0.092 0.636
-0.389 -0.092 0.639
-0.389 -0.093 0.641
-0.388 -0.093 0.643
-0.388 -0.093 0.646
-0.388 -0.094 0.649
-0.388 -0.094 0.652
-0.388 -0.095 0.655
-0.388 -0.095 0.658
-0.388 -0.096 0.661
-0.388 -0.096 0.664
-0.388 -0.096 0.667
-0.387 -0.097 0.670
-0.387 -0.097 0.672
-0.386 -0.097 0.675
-0.386 -0.098 0.678
-0.386 -0.098 0.681
-0.385 -0.099 0.683
-0.385 -0.099 0.686
-0.384 -0.099 0.688
-0.383 -0.099 0.690
-0.382 -0.100 0.692
-0.382 -0.100 0.695
-0.381 -0.100 0.697
-0.371 -0.098 0.681
-0.344 -0.092 0.636
-0.330 -0.088 0.613
-0.324 -0.087 0.604
-0.319 -0.086 0.599
-0.316 -0.086 0.597
-0.314 -0.086 0.595
-0.311 -0.085 0.594
-0.309 -0.085 0.593
-0.307 -0.085 0.591
-0.305 -0.085 0.590
-0.303 -0.085 0.589
-0.301 -0.085 0.588
-0.298 -0.084 0.587
-0.296 -0.084 0.586
-0.294 -0.084 0.585
-0.292 -0.084 0.585
-0.291 -0.084 0.585
-0.289 -0.084 0.584
-0.287 -0.084 0.584
-0.285 -0.084 0.584
-0.284 -0.084 0.584
-0.282 -0.084 0.583
-0.280 -0.084 0.583
-0.279 -0.084 0.583
-0.277 -0.084 0.583
-0.275 -0.084 0.583
-0.274 -0.084 0.583
-0.272 -0.084 0.583
-0.271 -0.084 0.584
-0.269 -0.084 0.584
-0.268 -0.084 0.584
-0.266 -0.084 0.584
-0.265 -0.084 0.584
-0.263 -0.084 0.584
-0.262 -0.084 0.585
-0.261 -0.084 0.585
-0.259 -0.084 0.586
-0.258 -0.084 0.587
-0.256 -0.084 0.587
-0.255 -0.084 0.588
-0.254 -0.084 0.588
-0.252 -0.085 0.589
-0.251 -0.085 0.589
-0.250 -0.085 0.590
-0.248 -0.085 0.590
-0.247 -0.085 0.591
-0.245 -0.085 0.591
-0.244 -0.085 0.592
-0.243 -0.085 0.592
-0.241 -0.085 0.593
-0.240 -0.085 0.593
-0.238 -0.085 0.594
-0.237 -0.085 0.594
-0.236 -0.085 0.595
-0.235 -0.086 0.596
-0.233 -0.086 0.598
-0.232 -0.086 0.598
-0.231 -0.086 0.600
-0.230 -0.086 0.600
-0.228 -0.086 0.601
-0.227 -0.086 0.602
-0.226 -0.086 0.603
-0.224 -0.087 0.603
-0.223 -0.087 0.605
-0.222 -0.087 0.606
-0.221 -0.087 0.608
-0.220 -0.087 0.609
-0.219 -0.088 0.611
-0.218 -0.088 0.613
-0.217 -0.088 0.615
-0.216 -0.089 0.617
-0.215 -0.089 0.619
-0.214 -0.089 0.621
-0.213 -0.089 0.624
-0.212 -0.090 0.626
-0.212 -0.090 0.629
-0.211 -0.091 0.631
-0.210 -0.091 0.634
-0.209 -0.091 0.637
-0.209 -0.092 0.640
-0.208 -0.092 0.644
-0.208 -0.093 0.649
-0.208 -0.094 0.655
-0.208 -0.095 0.661
-0.208 -0.096 0.667
-0.208 -0.096 0.670
-0.203 -0.095 0.663
-0.200 -0.094 0.658
-0.197 -0.094 0.653
-0.193 -0.093 0.644
-0.189 -0.092 0.638
-0.186 -0.091 0.636
-0.185 -0.091 0.636
-0.184 -0.092 0.638
-0.183 -0.092 0.641
-0.182 -0.093 0.645
-0.182 -0.094 0.652
-0.184 -0.095 0.664
-0.191 -0.100 0.697
-0.200 -0.105 0.734
-0.204 -0.109 0.759
-0.204 -0.110 0.765
-0.201 -0.110 0.763
-0.198 -0.109 0.760
-0.195 -0.108 0.755
-0.192 -0.108 0.750
-0.188 -0.107 0.745
-0.186 -0.106 0.741
-0.183 -0.106 0.739
-0.180 -0.106 0.736
-0.178 -0.105 0.734
-0.175 -0.105 0.732
-0.173 -0.105 0.729
-0.170 -0.104 0.726
-0.167 -0.104 0.723
-0.165 -0.104 0.721
-0.163 -0.104 0.721
-0.160 -0.103 0.718
-0.156 -0.101 0.705
-0.150 -0.099 0.690
-0.147 -0.098 0.682
-0.144 -0.098 0.679
-0.142 -0.097 0.678
-0.140 -0.097 0.677
-0.138 -0.097 0.677
-0.136 -0.097 0.676
-0.135 -0.097 0.676
-0.133 -0.097 0.677
-0.131 -0.097 0.676
-0.129 -0.097 0.675
-0.127 -0.097 0.674
-0.125 -0.097 0.674
-0.123 -0.097 0.674
-0.121 -0.097 0.674
-0.119 -0.097 0.674
-0.118 -0.097 0.675
-0.116 -0.097 0.675
-0.114 -0.097 0.675
-0.112 -0.097 0.674
-0.110 -0.097 0.673
-0.109 -0.097 0.674
-0.107 -0.097 0.674
-0.105 -0.097 0.673
-0.103 -0.097 0.674
-0.101 -0.097 0.674
-0.099 -0.097 0.674
-0.097 -0.097 0.673
-0.096 -0.097 0.672
-0.094 -0.097 0.672
-0.092 -0.097 0.671
-0.090 -0.096 0.671
-0.088 -0.097 0.671
-0.086 -0.097 0.671
-0.085 -0.097 0.671
-0.083 -0.096 0.670
-0.081 -0.096 0.669
-0.079 -0.096 0.668
-0.077 -0.096 0.667
-0.075 -0.096 0.667
-0.073 -0.096 0.667
-0.071 -0.096 0.668
-0.070 -0.096 0.668
-0.068 -0.096 0.668
-0.066 -0.096 0.668
-0.064 -0.096 0.668
-0.062 -0.096 0.668
-0.060 -0.096 0.667
-0.059 -0.096 0.667
-0.057 -0.096 0.666
-0.055 -0.096 0.666
-0.053 -0.096 0.666
-0.051 -0.096 0.666
-0.050 -0.096 0.666
-0.048 -0.096 0.666
-0.046 -0.096 0.666
-0.044 -0.096 0.666
-0.042 -0.096 0.666
-0.041 -0.096 0.666
-0.039 -0.096 0.666
-0.037 -0.096 0.667
-0.035 -0.096 0.667
-0.033 -0.096 0.668
-0.032 -0.096 0.669
-0.030 -0.096 0.670
-0.028 -0.096 0.670
-0.026 -0.097 0.671
-0.024 -0.097 0.671
-0.023 -0.097 0.673
-0.021 -0.097 0.675
-0.019 -0.097 0.677
-0.017 -0.098 0.679
-0.016 -0.098 0.682
-0.014 -0.098 0.684
-0.012 -0.099 0.686
-0.010 -0.099 0.687
-0.008 -0.099 0.687
-0.006 -0.099 0.686
-0.005 -0.099 0.686
-0.003 -0.099 0.686
-0.001 -0.099 0.687
0.001 -0.099 0.687
0.003 -0.099 0.687
0.005 -0.099 0.687
0.007 -0.099 0.687
0.008 -0.099 0.686
0.010 -0.099 0.686
0.012 -0.099 0.687
0.014 -0.099 0.688
0.016 -0.099 0.689
0.018 -0.099 0.689
0.020 -0.099 0.690
0.022 -0.099 0.691
0.024 -0.100 0.692
0.025 -0.100 0.693
0.027 -0.100 0.693
0.029 -0.100 0.694
0.031 -0.100 0.695
0.033 -0.100 0.696
0.035 -0.100 0.697
0.037 -0.100 0.698
0.039 -0.100 0.698
0.041 -0.101 0.698
0.043 -0.101 0.699
0.045 -0.101 0.702
0.047 -0.101 0.704
0.049 -0.102 0.707
0.051 -0.102 0.710
0.053 -0.102 0.711
0.055 -0.103 0.712
0.057 -0.103 0.716
0.060 -0.104 0.720
0.062 -0.104 0.722
0.064 -0.104 0.724
0.066 -0.104 0.726
0.068 -0.105 0.729
0.071 -0.105 0.732
0.073 -0.106 0.737
0.076 -0.107 0.742
0.078 -0.108 0.748
0.081 -0.108 0.754
0.084 -0.109 0.760
0.086 -0.110 0.765
0.089 -0.111 0.768
0.091 -0.111 0.773
0.094 -0.112 0.776
0.096 -0.112 0.781
0.099 -0.113 0.784
0.101 -0.113 0.785
0.104 -0.113 0.787
0.106 -0.113 0.787
0.108 -0.113 0.789
0.110 -0.114 0.791
0.113 -0.114 0.791
0.114 -0.112 0.782
0.109 -0.106 0.736
0.106 -0.101 0.702
0.106 -0.100 0.692
0.106 -0.098 0.682
0.106 -0.096 0.666
0.105 -0.094 0.652
0.106 -0.093 0.645
0.107 -0.092 0.642
0.108 -0.092 0.639
0.110 -0.092 0.639
0.112 -0.092 0.639
0.114 -0.092 0.640
0.116 -0.092 0.642
0.118 -0.093 0.646
0.123 -0.095 0.663
0.132 -0.101 0.701
0.137 -0.103 0.715
0.138 -0.102 0.711
0.138 -0.101 0.701
0.138 -0.099 0.691
0.138 -0.098 0.681
0.138 -0.097 0.675
0.139 -0.096 0.669
0.140 -0.095 0.665
0.140 -0.095 0.660
0.141 -0.094 0.657
0.142 -0.094 0.653
0.143 -0.093 0.649
0.144 -0.093 0.646
0.146 -0.092 0.643
0.147 -0.092 0.641
0.148 -0.092 0.638
0.149 -0.091 0.636
0.150 -0.091 0.634
0.151 -0.091 0.632
0.153 -0.091 0.630
0.154 -0.090 0.628
0.155 -0.090 0.626
0.156 -0.090 0.625
0.158 -0.090 0.623
0.159 -0.089 0.621
0.160 -0.089 0.620
0.161 -0.089 0.618
0.163 -0.089 0.617
0.164 -0.088 0.615
0.165 -0.088 0.614
0.167 -0.088 0.613
0.168 -0.088 0.612
0.170 -0.088 0.611
0.171 -0.088 0.610
0.172 -0.088 0.610
0.174 -0.087 0.609
0.176 -0.087 0.609
0.177 -0.087 0.609
0.179 -0.087 0.608
0.180 -0.087 0.608
0.182 -0.087 0.607
0.183 -0.087 0.607
0.184 -0.087 0.605
0.186 -0.087 0.605
0.187 -0.087 0.605
0.189 -0.087 0.604
0.190 -0.087 0.603
0.192 -0.087 0.603
0.193 -0.086 0.603
0.195 -0.086 0.602
0.196 -0.086 0.602
0.198 -0.086 0.602
0.199 -0.086 0.601
0.201 -0.086 0.600
0.202 -0.086 0.600
0.204 -0.086 0.600
0.205 -0.086 0.599
0.207 -0.086 0.599
0.208 -0.086 0.598
0.210 -0.086 0.598
0.211 -0.086 0.598
0.213 -0.086 0.598
0.214 -0.086 0.598
0.216 -0.086 0.598
0.217 -0.086 0.597
0.219 -0.086 0.597
0.220 -0.086 0.597
0.222 -0.086 0.597
0.224 -0.086 0.597
0.225 -0.086 0.597
0.227 -0.086 0.598
0.229 -0.086 0.598
0.231 -0.086 0.598
0.232 -0.086 0.599
0.234 -0.086 0.599
0.236 -0.086 0.600
0.238 -0.086 0.601
0.240 -0.086 0.602
0.242 -0.086 0.602
0.244 -0.087 0.603
0.246 -0.087 0.604
0.248 -0.087 0.605
0.250 -0.087 0.607
0.254 -0.088 0.611
0.255 -0.088 0.610
0.000 0.000 0.000
0.000 0.000 0.000
0.000 0.000 0.000
0.000 0.000 0.000
0.000 0.000 0.000
0.000 0.000 0.000
0.000 0.000 0.000
0.000 0.000 0.000
0.000 0.000 0.000
0.000 0.000 0.000
0.000 0.000 0.000
0.000 0.000 0.000
0.000 0.000 0.000
0.000 0.000 0.000
0.000 0.000 0.000
0.000 0.000 0.000
0.000 0.000 0.000
1.214 -0.373 2.600
1.221 -0.373 2.599
1.228 -0.373 2.599
1.235 -0.373 2.597
1.241 -0.373 2.597
1.248 -0.373 2.596
1.255 -0.373 2.596
1.262 -0.373 2.595
1.268 -0.373 2.593
1.275 -0.373 2.593
1.282 -0.373 2.591
1.288 -0.372 2.591
1.295 -0.372 2.589
1.302 -0.372 2.589
1.308 -0.372 2.588
1.316 -0.372 2.588
1.322 -0.372 2.587
1.329 -0.372 2.586
1.335 -0.372 2.585
1.342 -0.372 2.584
1.349 -0.372 2.583
1.356 -0.372 2.582
1.362 -0.371 2.580
1.369 -0.371 2.580
1.375 -0.371 2.579
1.383 -0.371 2.579
1.389 -0.371 2.577
1.396 -0.371 2.576
1.402 -0.371 2.574
1.409 -0.371 2.574
1.415 -0.371 2.572
1.422 -0.371 2.571
1.428 -0.370 2.570
1.435 -0.370 2.569
1.441 -0.370 2.567
1.448 -0.370 2.566
1.454 -0.370 2.565
1.461 -0.370 2.564
1.468 -0.370 2.564
1.475 -0.370 2.563
1.481 -0.370 2.561
1.487 -0.370 2.559
1.494 -0.369 2.558
1.500 -0.369 2.556
1.507 -0.369 2.555
1.513 -0.369 2.553
1.519 -0.369 2.551
1.525 -0.369 2.549
1.532 -0.369 2.548
1.538 -0.368 2.546
1.545 -0.368 2.545
1.551 -0.368 2.544
1.558 -0.368 2.543
1.565 -0.368 2.542
1.571 -0.368 2.540
1.578 -0.368 2.539
1.584 -0.368 2.537
1.590 -0.368 2.535
1.596 -0.367 2.533
1.603 -0.367 2.531
1.609 -0.367 2.529
1.615 -0.367 2.528
1.621 -0.367 2.526
1.627 -0.367 2.524
1.634 -0.367 2.523
1.641 -0.366 2.522
1.647 -0.366 2.520
1.653 -0.366 2.518
1.660 -0.366 2.517
1.667 -0.366 2.516
1.671 -0.366 2.511
1.675 -0.365 2.505
1.678 -0.364 2.500
1.683 -0.364 2.495
0.000 0.000 0.000
0.000 0.000 0.000
0.000 0.000 0.000
0.000 0.000 0.000
0.000 0.000 0.000
0.000 0.000 0.000
0.000 0.000 0.000
0.000 0.000 0.000
-0.427 -0.090 0.601
-0.425 -0.090 0.601
-0.423 -0.089 0.600
-0.420 -0.089 0.599
-0.419 -0.089 0.599
-0.417 -0.089 0.600
-0.416 -0.089 0.601
-0.415 -0.090 0.602
-0.414 -0.090 0.604
-0.412 -0.090 0.604
-0.411 -0.090 0.605
-0.410 -0.090 0.605
-0.408 -0.090 0.606
-0.406 -0.090 0.605
-0.405 -0.090 0.606
-0.403 -0.090 0.606
-0.401 -0.090 0.606
-0.399 -0.090 0.605
-0.396 -0.089 0.604
-0.394 -0.089 0.604
-0.393 -0.089 0.604
-0.392 -0.090 0.605
-0.391 -0.090 0.607
-0.391 -0.090 0.610
-0.391 -0.091 0.612
-0.391 -0.091 0.615
-0.391 -0.091 0.617
-0.390 -0.092 0.620
-0.390 -0.092 0.622
-0.390 -0.092 0.625
-0.390 -0.093 0.627
-0.390 -0.093 0.631
-0.390 -0.093 0.634
-0.390 -0.094 0.637
-0.390 -0.094 0.640
-0.390 -0.095 0.642
-0.389 -0.095 0.644
-0.388 -0.095 0.646
-0.388 -0.096 0.649
-0.388 -0.096 0.651
-0.387 -0.096 0.654
-0.387 -0.097 0.657
-0.388 -0.097 0.661
-0.388 -0.098 0.664
-0.388 -0.098 0.667
-0.387 -0.099 0.670
-0.387 -0.099 0.672
-0.386 -0.099 0.675
-0.386 -0.100 0.677
-0.386 -0.100 0.680
-0.385 -0.100 0.683
-0.385 -0.101 0.686
-0.384 -0.101 0.688
-0.384 -0.101 0.690
-0.383 -0.102 0.694
-0.384 -0.103 0.699
-0.387 -0.104 0.708
-0.381 -0.103 0.700
-0.353 -0.096 0.652
-0.331 -0.090 0.615
-0.323 -0.088 0.603
-0.318 -0.088 0.597
-0.315 -0.087 0.595
-0.313 -0.087 0.593
-0.311 -0.087 0.592
-0.308 -0.087 0.591
-0.306 -0.086 0.590
-0.304 -0.086 0.589
-0.302 -0.086 0.588
-0.300 -0.086 0.587
-0.298 -0.086 0.587
-0.296 -0.086 0.585
-0.294 -0.086 0.584
-0.292 -0.086 0.584
-0.290 -0.085 0.584
-0.288 -0.085 0.583
-0.287 -0.085 0.583
-0.285 -0.085 0.583
-0.283 -0.085 0.583
-0.282 -0.085 0.583
-0.280 -0.085 0.583
-0.278 -0.085 0.583
-0.277 -0.085 0.583
-0.275 -0.085 0.582
-0.274 -0.085 0.582
-0.272 -0.085 0.583
-0.271 -0.085 0.583
-0.269 -0.085 0.583
-0.267 -0.085 0.583
-0.266 -0.085 0.583
-0.264 -0.085 0.583
-0.263 -0.085 0.584
-0.262 -0.086 0.585
-0.260 -0.086 0.585
-0.259 -0.086 0.586
-0.258 -0.086 0.586
-0.256 -0.086 0.587
-0.255 -0.086 0.587
-0.254 -0.086 0.588
-0.252 -0.086 0.588
-0.251 -0.086 0.589
-0.249 -0.086 0.589
-0.248 -0.086 0.591
-0.247 -0.086 0.591
-0.245 -0.086 0.591
-0.244 -0.086 0.591
-0.243 -0.087 0.592
-0.241 -0.087 0.592
-0.240 -0.087 0.593
-0.238 -0.087 0.593
-0.237 -0.087 0.594
-0.236 -0.087 0.595
-0.235 -0.087 0.597
-0.234 -0.087 0.598
-0.232 -0.088 0.599
-0.231 -0.088 0.600
-0.230 -0.088 0.601
-0.228 -0.088 0.601
-0.227 -0.088 0.602
-0.226 -0.088 0.603
-0.225 -0.088 0.604
-0.223 -0.088 0.605
-0.222 -0.089 0.607
-0.221 -0.089 0.608
-0.220 -0.089 0.610
-0.219 -0.089 0.612
-0.218 -0.090 0.614
-0.217 -0.090 0.616
-0.216 -0.090 0.618
-0.215 -0.091 0.620
-0.214 -0.091 0.622
-0.213 -0.091 0.624
-0.213 -0.092 0.626
-0.212 -0.092 0.629
-0.211 -0.092 0.632
-0.210 -0.093 0.634
-0.209 -0.093 0.638
-0.209 -0.094 0.641
-0.209 -0.094 0.645
-0.208 -0.095 0.650
-0.209 -0.096 0.657
-0.209 -0.097 0.664
-0.210 -0.098 0.672
-0.209 -0.099 0.674
-0.204 -0.097 0.664
-0.200 -0.096 0.657
-0.195 -0.095 0.648
-0.191 -0.093 0.639
-0.188 -0.093 0.636
-0.186 -0.093 0.635
-0.185 -0.093 0.636
-0.183 -0.093 0.636
-0.182 -0.093 0.639
-0.181 -0.094 0.642
-0.182 -0.095 0.649
-0.183 -0.096 0.659
-0.189 -0.101 0.688
-0.197 -0.106 0.726
-0.203 -0.110 0.755
-0.204 -0.112 0.764
-0.201 -0.112 0.763
-0.198 -0.111 0.760
-0.195 -0.111 0.755
-0.192 -0.110 0.750
-0.188 -0.109 0.745
-0.185 -0.108 0.741
-0.183 -0.108 0.738
-0.180 -0.108 0.735
-0.178 -0.107 0.733
-0.175 -0.107 0.731
-0.173 -0.107 0.729
-0.170 -0.106 0.726
-0.167 -0.106 0.724
-0.165 -0.106 0.722
-0.163 -0.106 0.723
-0.160 -0.105 0.717
-0.155 -0.103 0.703
-0.150 -0.101 0.689
-0.147 -0.100 0.682
-0.144 -0.099 0.680
-0.142 -0.099 0.679
-0.140 -0.099 0.678
-0.138 -0.099 0.677
-0.137 -0.099 0.677
