ply
format ascii 1.0
comment VCGLIB generated
element vertex 2588
property float x
property float y
property float z
end_header
-1.376 1.048 2.055
-1.374 1.051 2.062
-1.367 1.050 2.061
-1.365 1.053 2.068
-1.360 1.054 2.071
-1.349 1.050 2.065
-1.341 1.048 2.062
-1.337 1.050 2.067
-1.336 1.053 2.074
-1.333 1.056 2.081
-1.331 1.059 2.088
-1.331 1.063 2.097
-1.331 1.068 2.108
-1.330 1.072 2.117
-1.331 1.078 2.129
-1.336 1.087 2.148
0.000 0.000 0.000
0.000 0.000 0.000
-1.347 1.110 2.198
-1.344 1.113 2.205
-1.342 1.116 2.212
-1.338 1.118 2.216
-1.334 1.121 2.222
-1.332 1.123 2.229
-1.329 1.126 2.236
-1.325 1.128 2.241
-1.322 1.132 2.248
-1.321 1.135 2.257
-1.318 1.139 2.265
-1.316 1.142 2.272
-1.313 1.145 2.279
-1.310 1.148 2.285
-1.307 1.151 2.293
-1.304 1.154 2.300
-1.301 1.157 2.307
-1.298 1.160 2.314
-1.295 1.163 2.321
-1.292 1.166 2.328
-1.289 1.170 2.335
-1.287 1.173 2.343
-1.284 1.177 2.351
-1.281 1.180 2.358
-1.278 1.183 2.366
-1.275 1.186 2.373
-1.272 1.190 2.381
-1.269 1.193 2.388
-1.266 1.197 2.396
-1.263 1.200 2.404
-1.261 1.204 2.413
-1.258 1.208 2.420
-1.255 1.212 2.429
-1.252 1.215 2.437
-1.250 1.219 2.446
-1.246 1.222 2.453
-1.244 1.226 2.462
-1.241 1.230 2.470
-1.238 1.235 2.480
-1.236 1.239 2.489
-1.233 1.243 2.498
-1.230 1.247 2.507
-1.227 1.252 2.516
-1.224 1.255 2.524
-1.221 1.260 2.534
-1.219 1.264 2.543
-1.216 1.268 2.553
-1.213 1.272 2.562
-1.210 1.277 2.571
-1.207 1.281 2.581
-1.204 1.286 2.590
-1.201 1.289 2.599
-1.197 1.293 2.607
-1.195 1.299 2.618
-1.192 1.304 2.629
-1.189 1.308 2.639
-1.186 1.313 2.648
-1.183 1.317 2.658
-1.179 1.321 2.668
-1.176 1.326 2.677
-1.173 1.331 2.688
-1.170 1.336 2.698
-1.167 1.341 2.709
-1.163 1.345 2.719
-1.160 1.350 2.729
-1.157 1.355 2.739
-1.154 1.360 2.750
-1.150 1.365 2.761
-1.147 1.370 2.772
-1.144 1.376 2.783
-1.141 1.381 2.795
-1.138 1.387 2.806
-1.135 1.392 2.818
-1.131 1.398 2.830
-1.128 1.404 2.842
-1.125 1.409 2.854
-1.122 1.415 2.867
-1.119 1.421 2.879
-1.116 1.428 2.893
-1.112 1.433 2.904
-1.109 1.439 2.916
-1.106 1.445 2.929
-1.102 1.450 2.940
-1.098 1.455 2.951
-1.093 1.460 2.961
-1.089 1.465 2.972
-1.083 1.469 2.980
-1.078 1.472 2.986
-1.072 1.475 2.993
-1.066 1.478 3.000
-1.060 1.482 3.008
-1.056 1.487 3.019
-1.051 1.492 3.030
-1.046 1.497 3.039
-1.041 1.501 3.047
-1.036 1.506 3.058
-1.032 1.512 3.071
-1.027 1.517 3.082
-1.021 1.521 3.090
-1.015 1.525 3.099
-1.010 1.529 3.108
-1.003 1.533 3.115
-0.997 1.535 3.121
-0.990 1.538 3.125
-0.983 1.541 3.132
-0.978 1.546 3.143
-0.974 1.554 3.160
-0.972 1.564 3.181
-0.969 1.573 3.199
-0.964 1.579 3.212
-0.958 1.583 3.221
-0.951 1.587 3.228
-0.945 1.591 3.236
-0.938 1.595 3.245
-0.932 1.600 3.255
-0.926 1.604 3.264
-0.918 1.605 3.267
-0.907 1.602 3.261
-0.895 1.596 3.249
-0.883 1.591 3.238
-0.872 1.587 3.231
-0.862 1.584 3.226
-0.853 1.584 3.225
-0.845 1.585 3.228
-0.838 1.588 3.234
-0.831 1.593 3.243
-0.825 1.597 3.254
-0.819 1.603 3.265
-0.813 1.609 3.277
-0.806 1.612 3.285
-0.798 1.614 3.288
-0.789 1.614 3.288
-0.781 1.616 3.292
-0.775 1.621 3.303
-0.769 1.629 3.320
-0.764 1.636 3.334
-0.757 1.641 3.344
-0.749 1.643 3.349
-0.740 1.645 3.352
-0.732 1.646 3.356
-0.724 1.648 3.360
-0.716 1.650 3.364
-0.707 1.651 3.366
-0.698 1.652 3.368
-0.689 1.653 3.371
-0.680 1.654 3.371
-0.671 1.654 3.372
-0.662 1.654 3.373
-0.654 1.655 3.375
-0.644 1.655 3.374
-0.635 1.654 3.374
-0.626 1.655 3.375
-0.617 1.656 3.377
-0.608 1.657 3.379
-0.598 1.653 3.371
-0.587 1.647 3.360
-0.577 1.646 3.357
-0.568 1.646 3.358
-0.560 1.648 3.362
-0.552 1.651 3.368
-0.543 1.654 3.374
-0.535 1.655 3.377
-0.525 1.655 3.376
-0.517 1.656 3.379
-0.508 1.657 3.380
-0.499 1.657 3.381
-0.490 1.658 3.382
-0.481 1.658 3.383
-0.471 1.658 3.383
-0.462 1.658 3.382
-0.453 1.657 3.382
-0.444 1.657 3.382
-0.435 1.657 3.382
-0.426 1.658 3.384
-0.416 1.658 3.384
-0.408 1.659 3.386
-0.399 1.660 3.387
-0.390 1.661 3.390
-0.381 1.661 3.390
-0.371 1.660 3.389
-0.362 1.660 3.388
-0.353 1.660 3.389
-0.344 1.661 3.390
-0.335 1.661 3.391
-0.326 1.661 3.391
-0.317 1.663 3.394
-0.307 1.662 3.392
-0.298 1.662 3.392
-0.289 1.661 3.391
-0.280 1.662 3.392
-0.271 1.663 3.394
-0.261 1.663 3.394
-0.252 1.664 3.396
-0.243 1.664 3.397
-0.234 1.664 3.397
-0.225 1.664 3.397
-0.216 1.663 3.395
-0.206 1.662 3.394
-0.197 1.660 3.389
-0.187 1.658 3.384
-0.178 1.655 3.378
-0.168 1.651 3.372
-0.159 1.649 3.367
-0.150 1.647 3.362
-0.141 1.646 3.361
-0.132 1.647 3.362
-0.123 1.650 3.369
-0.114 1.655 3.379
-0.105 1.663 3.394
-0.096 1.670 3.409
-0.087 1.673 3.416
-0.078 1.672 3.414
-0.069 1.672 3.413
-0.060 1.674 3.417
-0.050 1.673 3.416
-0.041 1.667 3.404
-0.032 1.661 3.392
-0.022 1.659 3.388
-0.013 1.661 3.391
-0.004 1.662 3.394
0.005 1.662 3.394
0.014 1.662 3.393
0.023 1.662 3.393
0.033 1.661 3.392
0.042 1.661 3.391
0.051 1.660 3.390
0.060 1.660 3.390
0.069 1.660 3.389
0.078 1.659 3.388
0.088 1.659 3.387
0.097 1.658 3.385
0.106 1.658 3.385
0.115 1.657 3.384
0.124 1.657 3.384
0.133 1.657 3.383
0.142 1.656 3.382
0.151 1.656 3.380
0.161 1.655 3.379
0.170 1.655 3.379
0.179 1.655 3.378
0.188 1.654 3.377
0.197 1.653 3.374
0.206 1.653 3.374
0.215 1.652 3.372
0.224 1.652 3.372
0.233 1.650 3.369
0.242 1.650 3.368
0.251 1.649 3.366
0.260 1.648 3.365
0.269 1.648 3.364
0.278 1.647 3.362
0.287 1.646 3.360
0.296 1.645 3.358
0.305 1.644 3.356
0.314 1.643 3.354
0.323 1.642 3.351
0.331 1.641 3.349
0.340 1.640 3.347
0.349 1.639 3.346
0.358 1.639 3.345
0.367 1.638 3.343
0.376 1.636 3.340
0.385 1.636 3.338
0.393 1.634 3.336
0.402 1.633 3.332
0.411 1.631 3.328
0.419 1.629 3.324
0.427 1.626 3.319
0.436 1.624 3.314
0.444 1.621 3.307
0.452 1.618 3.302
0.460 1.616 3.297
0.469 1.613 3.292
0.477 1.611 3.287
0.485 1.609 3.283
0.494 1.608 3.280
0.502 1.606 3.277
0.511 1.606 3.276
0.519 1.605 3.275
0.528 1.605 3.275
0.537 1.605 3.275
0.546 1.605 3.275
0.555 1.606 3.275
0.564 1.606 3.276
0.573 1.606 3.276
0.582 1.605 3.275
0.590 1.605 3.273
0.599 1.604 3.271
0.608 1.604 3.270
0.616 1.602 3.268
0.624 1.601 3.265
0.633 1.599 3.261
0.641 1.598 3.259
0.649 1.597 3.255
0.657 1.595 3.252
0.665 1.593 3.248
0.673 1.592 3.245
0.682 1.591 3.243
0.690 1.590 3.240
0.698 1.588 3.238
0.707 1.587 3.235
0.715 1.587 3.234
0.724 1.586 3.233
0.732 1.586 3.232
0.740 1.584 3.229
0.748 1.583 3.225
0.757 1.581 3.222
0.765 1.581 3.221
0.773 1.580 3.220
0.782 1.580 3.219
0.791 1.581 3.220
0.800 1.582 3.222
0.809 1.582 3.223
0.818 1.583 3.224
0.828 1.584 3.225
0.837 1.584 3.227
0.846 1.585 3.228
0.855 1.586 3.230
0.865 1.587 3.232
0.874 1.589 3.234
0.884 1.591 3.238
0.894 1.592 3.240
0.903 1.594 3.244
0.913 1.595 3.247
0.923 1.597 3.251
0.933 1.599 3.254
0.943 1.601 3.257
0.952 1.602 3.260
0.962 1.604 3.262
0.972 1.605 3.264
0.981 1.606 3.267
0.991 1.607 3.268
1.000 1.608 3.269
1.009 1.608 3.270
1.018 1.608 3.270
1.027 1.607 3.267
1.035 1.606 3.265
1.042 1.604 3.260
1.049 1.601 3.254
1.056 1.597 3.246
1.063 1.595 3.241
1.069 1.592 3.234
1.076 1.589 3.228
1.083 1.586 3.221
1.090 1.584 3.216
1.097 1.581 3.210
1.104 1.579 3.205
1.111 1.576 3.200
1.119 1.574 3.196
1.126 1.573 3.192
1.133 1.571 3.188
1.141 1.569 3.183
1.148 1.568 3.180
1.156 1.567 3.178
1.165 1.566 3.176
1.173 1.565 3.174
1.181 1.565 3.174
1.190 1.565 3.173
1.198 1.564 3.171
1.206 1.564 3.169
1.214 1.563 3.168
1.222 1.562 3.166
1.231 1.562 3.165
1.239 1.562 3.163
1.247 1.561 3.161
1.255 1.560 3.159
1.263 1.560 3.158
1.271 1.559 3.155
1.280 1.559 3.154
1.287 1.557 3.151
1.295 1.556 3.149
1.303 1.555 3.145
1.311 1.554 3.143
1.319 1.554 3.142
1.327 1.553 3.140
1.334 1.552 3.137
1.342 1.551 3.134
1.349 1.550 3.131
1.357 1.549 3.128
1.366 1.549 3.128
1.374 1.548 3.126
1.382 1.547 3.123
1.389 1.546 3.120
1.397 1.545 3.117
1.405 1.545 3.116
1.412 1.543 3.113
1.420 1.542 3.110
1.427 1.541 3.105
1.434 1.540 3.103
1.442 1.539 3.100
1.450 1.538 3.098
1.457 1.537 3.095
1.466 1.537 3.094
1.474 1.536 3.092
1.482 1.536 3.091
1.489 1.535 3.088
1.497 1.534 3.085
1.505 1.533 3.083
1.512 1.532 3.079
1.519 1.530 3.075
1.527 1.530 3.074
1.535 1.530 3.072
1.543 1.529 3.070
1.550 1.528 3.067
1.558 1.528 3.065
1.566 1.527 3.063
1.574 1.526 3.061
1.581 1.525 3.058
1.589 1.525 3.056
1.597 1.525 3.054
1.605 1.524 3.052
1.612 1.523 3.049
1.620 1.522 3.047
1.628 1.522 3.045
1.636 1.521 3.043
1.644 1.521 3.040
1.652 1.520 3.039
1.659 1.519 3.035
1.667 1.519 3.034
1.675 1.518 3.031
1.683 1.518 3.030
1.689 1.516 3.025
1.698 1.517 3.025
1.705 1.515 3.021
1.711 1.513 3.016
1.719 1.513 3.014
1.729 1.514 3.015
1.736 1.514 3.012
1.744 1.513 3.009
1.750 1.511 3.005
1.759 1.512 3.005
1.767 1.511 3.003
1.774 1.510 2.999
1.780 1.508 2.994
1.788 1.508 2.992
1.796 1.508 2.990
1.805 1.508 2.989
1.811 1.506 2.983
1.820 1.507 2.984
1.828 1.506 2.981
1.837 1.507 2.981
1.842 1.504 2.974
1.850 1.504 2.973
1.857 1.503 2.969
1.865 1.503 2.967
1.873 1.503 2.965
1.883 1.504 2.967
1.891 1.504 2.965
1.901 1.505 2.965
1.906 1.502 2.958
1.913 1.501 2.954
1.922 1.502 2.954
1.930 1.502 2.953
1.932 1.497 2.941
1.940 1.496 2.939
1.950 1.498 2.939
1.960 1.499 2.940
1.963 1.495 2.931
1.973 1.496 2.931
1.979 1.494 2.926
1.985 1.493 2.922
0.000 0.000 0.000
0.000 0.000 0.000
0.000 0.000 0.000
0.000 0.000 0.000
0.000 0.000 0.000
0.000 0.000 0.000
0.000 0.000 0.000
0.000 0.000 0.000
0.000 0.000 0.000
0.000 0.000 0.000
0.000 0.000 0.000
0.000 0.000 0.000
0.000 0.000 0.000
0.000 0.000 0.000
0.000 0.000 0.000
0.000 0.000 0.000
0.000 0.000 0.000
0.000 0.000 0.000
0.000 0.000 0.000
-1.398 1.000 1.955
-1.394 1.002 1.959
-1.389 1.002 1.961
-1.388 1.005 1.969
-1.390 1.011 1.981
-1.392 1.016 1.993
0.000 0.000 0.000
0.000 0.000 0.000
0.000 0.000 0.000
0.000 0.000 0.000
0.000 0.000 0.000
-1.377 1.031 2.029
-1.373 1.032 2.033
-1.374 1.036 2.043
-1.374 1.041 2.053
-1.373 1.045 2.062
-1.370 1.047 2.068
-1.365 1.048 2.070
-1.355 1.044 2.065
-1.346 1.042 2.061
-1.339 1.041 2.061
-1.338 1.044 2.068
-1.335 1.047 2.074
-1.333 1.050 2.080
-1.331 1.053 2.088
-1.329 1.056 2.096
-1.330 1.062 2.108
-1.331 1.067 2.119
-1.332 1.073 2.132
-1.337 1.081 2.151
0.000 0.000 0.000
0.000 0.000 0.000
-1.345 1.103 2.196
-1.344 1.107 2.205
-1.341 1.109 2.211
-1.337 1.111 2.216
-1.334 1.114 2.222
-1.330 1.116 2.228
-1.327 1.119 2.234
-1.324 1.121 2.240
-1.322 1.125 2.248
-1.319 1.128 2.256
-1.316 1.131 2.262
-1.314 1.134 2.269
-1.311 1.137 2.277
-1.308 1.140 2.284
-1.306 1.143 2.291
-1.303 1.147 2.299
-1.301 1.150 2.306
-1.298 1.153 2.314
-1.295 1.157 2.321
-1.292 1.159 2.328
-1.289 1.162 2.335
-1.285 1.165 2.341
-1.283 1.169 2.349
-1.280 1.172 2.357
-1.277 1.176 2.365
-1.274 1.179 2.372
-1.271 1.182 2.378
-1.268 1.185 2.386
-1.265 1.189 2.395
-1.263 1.193 2.404
-1.260 1.197 2.411
-1.257 1.200 2.420
-1.254 1.204 2.428
-1.252 1.208 2.436
-1.248 1.211 2.444
-1.246 1.215 2.452
-1.243 1.219 2.460
-1.240 1.223 2.469
-1.237 1.227 2.479
-1.235 1.231 2.488
-1.232 1.236 2.498
-1.230 1.240 2.506
-1.227 1.244 2.515
-1.224 1.248 2.524
-1.221 1.252 2.534
-1.218 1.257 2.543
-1.215 1.261 2.552
-1.212 1.265 2.562
-1.209 1.269 2.571
-1.207 1.274 2.581
-1.204 1.278 2.590
-1.200 1.282 2.599
-1.197 1.286 2.607
-1.194 1.291 2.618
-1.192 1.296 2.629
-1.189 1.301 2.639
-1.185 1.305 2.648
-1.182 1.309 2.658
-1.179 1.314 2.667
-1.176 1.319 2.678
-1.173 1.323 2.688
-1.170 1.328 2.698
-1.166 1.333 2.709
-1.163 1.337 2.718
-1.160 1.342 2.729
-1.156 1.347 2.739
-1.153 1.352 2.750
-1.150 1.357 2.760
-1.147 1.362 2.771
-1.144 1.368 2.783
-1.140 1.373 2.794
-1.137 1.378 2.805
-1.134 1.384 2.817
-1.131 1.390 2.829
-1.128 1.396 2.843
-1.125 1.401 2.854
-1.122 1.407 2.867
-1.119 1.413 2.880
-1.116 1.420 2.893
-1.112 1.425 2.904
-1.109 1.431 2.917
-1.105 1.436 2.928
-1.102 1.442 2.941
-1.098 1.447 2.952
-1.094 1.453 2.964
-1.090 1.458 2.975
-1.085 1.463 2.985
-1.080 1.467 2.993
-1.074 1.470 3.000
-1.068 1.473 3.006
-1.062 1.476 3.012
-1.056 1.479 3.020
-1.052 1.485 3.031
-1.047 1.489 3.042
-1.041 1.494 3.051
-1.036 1.498 3.060
-1.032 1.504 3.072
-1.027 1.510 3.084
-1.022 1.515 3.095
-1.017 1.519 3.104
-1.011 1.523 3.113
-1.005 1.527 3.121
-0.999 1.531 3.129
-0.993 1.534 3.136
-0.986 1.536 3.141
-0.979 1.539 3.147
-0.974 1.544 3.158
-0.970 1.552 3.175
-0.968 1.563 3.197
-0.965 1.571 3.214
-0.959 1.577 3.226
-0.953 1.581 3.235
-0.947 1.585 3.243
-0.940 1.589 3.252
-0.934 1.594 3.261
-0.928 1.598 3.270
-0.920 1.600 3.275
-0.911 1.601 3.277
-0.902 1.599 3.273
-0.890 1.594 3.264
-0.878 1.589 3.253
-0.867 1.585 3.246
-0.857 1.583 3.241
-0.848 1.582 3.240
-0.840 1.583 3.243
-0.833 1.587 3.251
-0.826 1.591 3.259
-0.820 1.596 3.269
-0.814 1.601 3.280
-0.808 1.608 3.293
-0.801 1.612 3.302
-0.793 1.613 3.304
-0.784 1.612 3.304
-0.776 1.614 3.308
-0.769 1.619 3.318
-0.764 1.627 3.335
-0.758 1.634 3.349
-0.751 1.638 3.358
-0.743 1.641 3.363
-0.734 1.643 3.367
-0.726 1.644 3.371
-0.718 1.646 3.374
-0.709 1.647 3.376
-0.700 1.648 3.379
-0.692 1.649 3.382
-0.683 1.651 3.385
-0.674 1.651 3.385
-0.665 1.651 3.385
-0.656 1.652 3.387
-0.647 1.652 3.388
-0.638 1.653 3.390
-0.629 1.653 3.390
-0.620 1.654 3.392
-0.611 1.655 3.394
-0.602 1.655 3.394
-0.591 1.649 3.383
-0.580 1.645 3.375
-0.570 1.643 3.371
-0.562 1.644 3.373
-0.553 1.647 3.378
-0.545 1.650 3.385
-0.537 1.652 3.389
-0.527 1.652 3.389
-0.518 1.652 3.390
-0.509 1.653 3.391
-0.501 1.654 3.394
-0.492 1.655 3.396
-0.483 1.655 3.397
-0.473 1.655 3.396
-0.464 1.655 3.396
-0.455 1.655 3.397
-0.446 1.655 3.397
-0.436 1.655 3.396
-0.427 1.655 3.397
-0.418 1.655 3.397
-0.409 1.655 3.398
-0.400 1.657 3.400
-0.391 1.657 3.402
-0.382 1.658 3.402
-0.373 1.657 3.401
-0.363 1.657 3.400
-0.354 1.657 3.402
-0.345 1.657 3.402
-0.336 1.658 3.403
-0.327 1.658 3.404
-0.318 1.658 3.404
-0.308 1.658 3.403
-0.299 1.658 3.403
-0.290 1.658 3.404
-0.281 1.659 3.405
-0.271 1.659 3.405
-0.262 1.660 3.407
-0.253 1.660 3.407
-0.244 1.659 3.406
-0.234 1.657 3.402
-0.225 1.654 3.396
-0.215 1.650 3.388
-0.206 1.647 3.382
-0.196 1.644 3.375
-0.186 1.641 3.369
-0.177 1.638 3.363
-0.168 1.636 3.360
-0.159 1.635 3.357
-0.149 1.635 3.357
-0.140 1.636 3.359
-0.132 1.639 3.364
-0.123 1.643 3.372
-0.114 1.647 3.382
-0.105 1.653 3.393
-0.096 1.658 3.403
-0.087 1.660 3.409
-0.078 1.660 3.409
-0.069 1.660 3.408
-0.060 1.661 3.411
-0.050 1.663 3.415
-0.041 1.661 3.411
-0.032 1.657 3.401
-0.023 1.653 3.395
-0.013 1.654 3.397
-0.004 1.657 3.402
0.005 1.658 3.403
0.014 1.657 3.402
0.023 1.656 3.400
0.033 1.656 3.399
0.042 1.655 3.398
0.051 1.655 3.398
0.060 1.654 3.397
0.069 1.654 3.397
0.079 1.653 3.395
0.088 1.653 3.395
0.097 1.652 3.393
0.106 1.652 3.392
0.115 1.652 3.391
0.124 1.651 3.391
0.133 1.651 3.389
0.143 1.650 3.388
0.152 1.649 3.386
0.161 1.649 3.386
0.170 1.649 3.385
0.179 1.649 3.385
0.188 1.648 3.383
0.197 1.647 3.381
0.206 1.646 3.379
0.215 1.645 3.378
0.224 1.645 3.377
0.233 1.644 3.375
0.242 1.643 3.373
0.252 1.642 3.372
0.261 1.642 3.370
0.269 1.641 3.368
0.278 1.640 3.366
0.287 1.639 3.364
0.296 1.638 3.362
0.305 1.637 3.360
0.314 1.636 3.358
0.323 1.635 3.356
0.332 1.633 3.353
0.341 1.633 3.351
0.350 1.632 3.349
0.358 1.631 3.347
0.367 1.629 3.343
0.376 1.627 3.339
0.384 1.624 3.334
0.393 1.622 3.329
0.401 1.619 3.323
0.409 1.617 3.318
0.418 1.614 3.313
0.426 1.612 3.308
0.434 1.609 3.302
0.443 1.607 3.298
0.451 1.605 3.294
0.460 1.604 3.292
0.468 1.603 3.290
0.477 1.602 3.288
0.486 1.602 3.287
0.495 1.602 3.288
0.504 1.603 3.288
0.513 1.603 3.289
0.522 1.603 3.288
0.531 1.603 3.289
0.539 1.603 3.288
0.548 1.602 3.287
0.557 1.601 3.285
0.565 1.600 3.283
0.574 1.599 3.280
0.582 1.598 3.277
0.590 1.596 3.274
0.599 1.595 3.272
0.607 1.594 3.269
0.616 1.593 3.266
0.624 1.591 3.262
0.632 1.589 3.259
0.640 1.588 3.256
0.649 1.587 3.253
0.657 1.586 3.251
0.665 1.585 3.249
0.674 1.584 3.248
0.683 1.584 3.246
0.691 1.583 3.245
0.699 1.582 3.242
0.707 1.580 3.239
0.716 1.579 3.237
0.724 1.579 3.236
0.733 1.579 3.235
0.742 1.578 3.234
0.750 1.578 3.233
0.759 1.578 3.233
0.768 1.579 3.235
0.777 1.579 3.235
0.786 1.580 3.236
0.795 1.580 3.238
0.805 1.582 3.240
0.814 1.583 3.242
0.823 1.584 3.244
0.833 1.585 3.247
0.843 1.587 3.249
0.852 1.588 3.252
0.862 1.590 3.255
0.872 1.592 3.259
0.882 1.594 3.263
0.892 1.595 3.266
0.901 1.597 3.269
0.911 1.598 3.272
0.921 1.600 3.274
0.930 1.601 3.277
0.940 1.602 3.279
0.950 1.603 3.281
0.959 1.604 3.282
0.968 1.604 3.283
0.977 1.605 3.283
0.986 1.604 3.281
0.994 1.603 3.278
1.001 1.600 3.273
1.008 1.598 3.268
1.016 1.595 3.262
1.023 1.592 3.256
1.030 1.589 3.249
1.037 1.587 3.243
1.043 1.583 3.235
1.050 1.580 3.229
1.057 1.577 3.223
1.064 1.575 3.219
1.071 1.573 3.214
1.079 1.571 3.209
1.086 1.569 3.205
1.094 1.568 3.202
1.102 1.566 3.198
1.109 1.565 3.195
1.117 1.564 3.193
1.126 1.563 3.191
1.133 1.562 3.188
1.142 1.561 3.186
1.150 1.561 3.185
1.158 1.561 3.184
1.167 1.560 3.182
1.175 1.559 3.181
1.183 1.559 3.179
1.192 1.559 3.178
1.200 1.558 3.176
1.208 1.557 3.174
1.216 1.557 3.173
1.224 1.556 3.171
1.232 1.556 3.169
1.240 1.555 3.167
1.248 1.554 3.165
1.256 1.553 3.162
1.264 1.552 3.160
1.272 1.551 3.158
1.280 1.550 3.155
1.288 1.550 3.154
1.296 1.549 3.151
1.303 1.548 3.148
1.311 1.547 3.146
1.320 1.546 3.144
1.328 1.546 3.142
1.335 1.544 3.139
1.343 1.543 3.136
1.351 1.542 3.134
1.358 1.541 3.130
1.365 1.540 3.127
1.373 1.539 3.124
1.381 1.538 3.122
1.389 1.537 3.120
1.397 1.536 3.118
1.405 1.536 3.116
1.412 1.535 3.114
1.420 1.534 3.110
1.427 1.533 3.107
1.435 1.532 3.105
1.443 1.531 3.103
1.450 1.530 3.100
1.458 1.529 3.097
1.465 1.528 3.094
1.474 1.528 3.093
1.482 1.527 3.091
1.490 1.527 3.089
1.497 1.526 3.087
1.505 1.525 3.084
1.512 1.523 3.080
1.519 1.522 3.077
1.527 1.522 3.075
1.535 1.521 3.073
1.543 1.521 3.071
1.551 1.520 3.069
1.558 1.519 3.066
1.566 1.519 3.064
1.574 1.518 3.062
1.582 1.518 3.061
1.590 1.517 3.058
1.598 1.517 3.057
1.605 1.516 3.054
1.614 1.516 3.052
1.622 1.515 3.051
1.630 1.515 3.049
1.637 1.514 3.046
1.645 1.514 3.044
1.653 1.513 3.042
1.660 1.512 3.039
1.668 1.512 3.037
1.676 1.511 3.035
1.682 1.509 3.030
1.691 1.509 3.029
1.698 1.509 3.026
1.706 1.508 3.024
1.712 1.506 3.019
1.721 1.506 3.018
1.729 1.506 3.017
1.737 1.506 3.014
1.745 1.505 3.012
1.752 1.505 3.010
1.759 1.503 3.005
1.767 1.503 3.003
1.775 1.503 3.002
1.784 1.503 3.002
1.792 1.502 2.999
1.800 1.502 2.997
1.806 1.500 2.991
1.813 1.499 2.988
1.819 1.497 2.983
1.828 1.498 2.983
1.838 1.499 2.984
1.845 1.499 2.981
1.851 1.496 2.975
1.858 1.495 2.971
1.863 1.493 2.966
1.873 1.494 2.967
1.881 1.494 2.965
1.893 1.497 2.969
1.897 1.494 2.961
1.906 1.494 2.960
1.916 1.495 2.961
1.923 1.494 2.957
1.927 1.491 2.949
1.930 1.486 2.938
1.939 1.487 2.938
1.947 1.488 2.937
1.955 1.487 2.935
1.965 1.488 2.935
1.974 1.489 2.935
1.981 1.488 2.931
1.984 1.484 2.921
0.000 0.000 0.000
0.000 0.000 0.000
0.000 0.000 0.000
2.012 1.480 2.907
0.000 0.000 0.000
0.000 0.000 0.000
0.000 0.000 0.000
0.000 0.000 0.000
0.000 0.000 0.000
0.000 0.000 0.000
0.000 0.000 0.000
0.000 0.000 0.000
0.000 0.000 0.000
0.000 0.000 0.000
0.000 0.000 0.000
0.000 0.000 0.000
0.000 0.000 0.000
0.000 0.000 0.000
0.000 0.000 0.000
-1.399 0.995 1.957
-1.392 0.994 1.957
-1.387 0.995 1.958
-1.384 0.997 1.964
-1.392 1.007 1.985
-1.392 1.010 1.994
0.000 0.000 0.000
0.000 0.000 0.000
0.000 0.000 0.000
0.000 0.000 0.000
-1.383 1.025 2.029
-1.375 1.024 2.027
-1.372 1.026 2.032
-1.372 1.030 2.042
-1.371 1.033 2.050
-1.370 1.037 2.059
-1.370 1.041 2.069
-1.363 1.040 2.068
-1.353 1.037 2.063
-1.344 1.034 2.058
-1.340 1.036 2.063
-1.337 1.038 2.068
-1.334 1.041 2.074
-1.332 1.043 2.080
-1.329 1.046 2.086
-1.328 1.050 2.095
-1.329 1.055 2.106
-1.330 1.061 2.119
-1.334 1.068 2.136
-1.340 1.078 2.156
0.000 0.000 0.000
-1.346 1.092 2.187
-1.344 1.096 2.196
-1.342 1.099 2.203
-1.339 1.102 2.210
-1.336 1.104 2.215
-1.333 1.107 2.221
-1.330 1.109 2.228
-1.326 1.112 2.233
-1.324 1.115 2.240
-1.321 1.118 2.248
-1.318 1.121 2.254
-1.315 1.124 2.261
-1.312 1.127 2.268
-1.309 1.129 2.274
-1.307 1.132 2.282
-1.305 1.136 2.290
-1.302 1.139 2.297
-1.299 1.142 2.304
-1.297 1.146 2.313
-1.295 1.150 2.321
-1.291 1.153 2.328
-1.288 1.155 2.334
-1.284 1.158 2.340
-1.282 1.162 2.348
-1.279 1.165 2.355
-1.276 1.168 2.363
-1.273 1.171 2.370
-1.270 1.175 2.378
-1.267 1.178 2.386
-1.265 1.182 2.394
-1.262 1.186 2.402
-1.259 1.189 2.411
-1.256 1.193 2.419
-1.254 1.197 2.427
-1.250 1.200 2.435
-1.247 1.203 2.443
-1.244 1.207 2.451
-1.242 1.211 2.460
-1.239 1.215 2.469
-1.237 1.220 2.478
-1.234 1.223 2.487
-1.231 1.228 2.496
-1.229 1.232 2.505
-1.226 1.236 2.514
-1.223 1.240 2.523
-1.220 1.245 2.533
-1.217 1.249 2.542
-1.214 1.253 2.551
-1.212 1.257 2.560
-1.209 1.262 2.570
-1.206 1.266 2.580
-1.203 1.270 2.589
-1.200 1.274 2.598
-1.197 1.279 2.607
-1.194 1.284 2.618
-1.191 1.288 2.629
-1.188 1.293 2.638
-1.185 1.297 2.647
-1.181 1.301 2.656
-1.178 1.306 2.666
-1.175 1.311 2.677
-1.172 1.315 2.687
-1.169 1.320 2.697
-1.166 1.325 2.707
-1.162 1.329 2.717
-1.159 1.335 2.729
-1.156 1.340 2.739
-1.153 1.344 2.750
-1.149 1.349 2.760
-1.146 1.354 2.771
-1.143 1.359 2.782
-1.140 1.365 2.793
-1.136 1.370 2.804
-1.134 1.376 2.817
-1.130 1.381 2.829
-1.128 1.387 2.841
-1.124 1.393 2.853
-1.121 1.399 2.866
-1.118 1.405 2.878
-1.115 1.410 2.891
-1.112 1.416 2.903
-1.108 1.422 2.915
-1.105 1.427 2.927
-1.101 1.433 2.939
-1.097 1.439 2.951
-1.094 1.445 2.964
-1.090 1.451 2.977
-1.086 1.456 2.988
-1.081 1.461 2.998
-1.076 1.465 3.007
-1.070 1.468 3.013
-1.064 1.470 3.019
-1.058 1.473 3.025
-1.052 1.477 3.033
-1.047 1.482 3.043
-1.043 1.487 3.054
-1.038 1.492 3.065
-1.033 1.497 3.076
-1.028 1.502 3.085
-1.023 1.507 3.097
-1.018 1.512 3.108
-1.012 1.517 3.117
-1.007 1.521 3.126
-1.001 1.525 3.135
-0.995 1.529 3.144
-0.989 1.532 3.150
-0.981 1.534 3.155
-0.975 1.537 3.162
-0.970 1.543 3.173
-0.966 1.551 3.190
-0.963 1.560 3.210
-0.960 1.569 3.228
-0.955 1.575 3.241
-0.949 1.580 3.251
-0.942 1.583 3.258
-0.936 1.587 3.267
-0.929 1.591 3.275
-0.922 1.595 3.283
-0.915 1.598 3.289
-0.907 1.599 3.292
-0.897 1.597 3.289
-0.885 1.593 3.280
-0.873 1.587 3.268
-0.862 1.583 3.261
-0.852 1.580 3.254
-0.843 1.580 3.254
-0.835 1.582 3.259
-0.828 1.585 3.265
-0.821 1.589 3.274
-0.815 1.594 3.284
-0.809 1.600 3.297
-0.803 1.606 3.309
-0.796 1.610 3.317
-0.787 1.611 3.320
-0.778 1.611 3.320
-0.770 1.613 3.324
-0.764 1.619 3.336
-0.758 1.626 3.352
-0.752 1.633 3.365
-0.745 1.637 3.374
-0.737 1.639 3.379
-0.729 1.641 3.383
-0.720 1.642 3.386
-0.711 1.643 3.388
-0.703 1.644 3.391
-0.694 1.646 3.394
-0.686 1.648 3.397
-0.677 1.648 3.399
-0.667 1.648 3.399
-0.658 1.648 3.400
-0.649 1.649 3.400
-0.641 1.650 3.404
-0.631 1.650 3.404
-0.622 1.651 3.405
-0.613 1.651 3.406
-0.604 1.652 3.408
-0.595 1.651 3.406
-0.584 1.646 3.395
-0.573 1.642 3.387
-0.563 1.641 3.385
-0.555 1.642 3.388
-0.546 1.645 3.393
-0.538 1.648 3.400
-0.529 1.649 3.402
-0.520 1.649 3.403
-0.511 1.650 3.405
-0.503 1.652 3.408
-0.494 1.653 3.410
-0.484 1.653 3.411
-0.475 1.652 3.409
-0.466 1.652 3.409
-0.457 1.652 3.410
-0.448 1.653 3.411
-0.438 1.653 3.411
-0.429 1.652 3.410
-0.420 1.652 3.409
-0.411 1.652 3.411
-0.402 1.653 3.413
-0.392 1.654 3.414
-0.383 1.653 3.413
-0.374 1.653 3.412
-0.365 1.653 3.413
-0.355 1.654 3.414
-0.346 1.654 3.413
-0.337 1.654 3.414
-0.328 1.654 3.414
-0.318 1.653 3.413
-0.309 1.653 3.412
-0.300 1.654 3.414
-0.291 1.654 3.414
-0.281 1.653 3.413
-0.272 1.652 3.410
-0.262 1.650 3.406
-0.253 1.648 3.402
-0.243 1.645 3.396
-0.234 1.642 3.390
-0.224 1.638 3.382
-0.214 1.635 3.375
-0.205 1.632 3.369
-0.195 1.630 3.365
-0.186 1.628 3.361
-0.177 1.627 3.359
-0.168 1.628 3.360
-0.159 1.629 3.364
-0.150 1.632 3.369
-0.141 1.634 3.375
-0.132 1.637 3.380
-0.123 1.641 3.388
-0.114 1.644 3.395
-0.105 1.648 3.403
-0.096 1.651 3.408
-0.087 1.652 3.411
-0.078 1.652 3.411
-0.069 1.652 3.411
-0.060 1.653 3.413
-0.050 1.655 3.416
-0.041 1.655 3.418
-0.032 1.653 3.412
-0.023 1.650 3.407
-0.013 1.650 3.408
-0.004 1.652 3.412
0.005 1.653 3.413
0.014 1.652 3.411
0.024 1.651 3.410
0.033 1.651 3.409
0.042 1.650 3.408
0.051 1.651 3.408
0.060 1.650 3.407
0.070 1.650 3.407
0.079 1.649 3.404
0.088 1.648 3.403
0.097 1.647 3.401
0.106 1.647 3.401
0.115 1.646 3.399
0.125 1.645 3.397
0.134 1.645 3.396
0.143 1.644 3.395
0.152 1.643 3.393
0.161 1.643 3.393
0.170 1.644 3.393
0.180 1.643 3.392
0.189 1.642 3.390
0.198 1.641 3.387
0.207 1.640 3.385
0.216 1.639 3.383
0.225 1.638 3.382
0.234 1.637 3.380
0.243 1.636 3.379
0.252 1.636 3.377
0.261 1.635 3.375
0.270 1.634 3.373
0.279 1.633 3.371
0.288 1.632 3.369
0.297 1.631 3.367
0.306 1.630 3.365
0.315 1.629 3.363
0.323 1.627 3.359
0.332 1.625 3.355
0.341 1.623 3.350
0.349 1.621 3.346
0.358 1.618 3.340
0.366 1.616 3.335
0.375 1.613 3.330
0.383 1.611 3.325
0.391 1.608 3.319
0.400 1.606 3.315
0.408 1.604 3.310
0.417 1.602 3.307
0.425 1.601 3.304
0.434 1.600 3.301
0.443 1.599 3.300
0.452 1.599 3.301
0.461 1.600 3.302
0.470 1.600 3.302
0.479 1.600 3.301
0.488 1.599 3.300
0.497 1.599 3.300
0.505 1.599 3.300
0.514 1.599 3.299
0.523 1.598 3.297
0.531 1.597 3.295
0.540 1.596 3.292
0.548 1.594 3.289
0.557 1.593 3.286
0.565 1.591 3.283
0.574 1.590 3.280
0.582 1.588 3.276
0.590 1.587 3.273
0.599 1.585 3.270
0.607 1.585 3.268
0.615 1.583 3.266
0.624 1.582 3.263
0.632 1.581 3.261
0.641 1.580 3.259
0.649 1.579 3.257
0.658 1.579 3.256
0.666 1.578 3.253
0.675 1.577 3.251
0.683 1.576 3.249
0.692 1.575 3.248
0.700 1.575 3.247
0.709 1.574 3.246
0.718 1.575 3.246
0.727 1.576 3.248
0.736 1.576 3.249
0.745 1.577 3.250
0.754 1.577 3.251
0.763 1.578 3.252
0.773 1.579 3.254
0.782 1.580 3.255
0.791 1.581 3.257
0.801 1.582 3.260
0.811 1.584 3.264
0.820 1.586 3.268
0.830 1.588 3.271
0.840 1.590 3.275
0.850 1.591 3.277
0.859 1.593 3.280
0.869 1.594 3.283
0.879 1.596 3.287
0.889 1.598 3.290
0.899 1.599 3.292
0.908 1.600 3.293
0.917 1.600 3.295
0.926 1.601 3.295
0.936 1.601 3.296
0.944 1.600 3.294
0.952 1.599 3.291
0.960 1.597 3.286
0.967 1.595 3.281
0.975 1.592 3.275
0.982 1.589 3.269
0.989 1.586 3.262
0.996 1.583 3.256
1.003 1.580 3.249
1.010 1.577 3.244
1.017 1.575 3.239
1.025 1.573 3.234
1.032 1.571 3.229
1.039 1.568 3.224
1.046 1.566 3.219
1.054 1.564 3.215
1.062 1.563 3.212
1.070 1.562 3.210
1.078 1.561 3.207
1.086 1.560 3.205
1.094 1.559 3.203
1.102 1.559 3.201
1.111 1.558 3.200
1.119 1.558 3.198
1.127 1.557 3.196
1.135 1.556 3.194
1.144 1.556 3.193
1.152 1.556 3.192
1.160 1.555 3.190
1.168 1.554 3.188
1.176 1.553 3.186
1.185 1.553 3.184
1.193 1.552 3.182
1.201 1.551 3.180
1.209 1.550 3.178
1.217 1.550 3.177
1.225 1.548 3.173
1.233 1.547 3.171
1.241 1.546 3.168
1.249 1.546 3.167
1.257 1.545 3.165
1.265 1.544 3.163
1.273 1.543 3.160
1.281 1.543 3.158
1.289 1.542 3.156
1.297 1.541 3.154
1.304 1.540 3.150
1.312 1.539 3.148
1.320 1.538 3.146
1.327 1.537 3.143
1.335 1.535 3.139
1.343 1.535 3.137
1.350 1.534 3.134
1.358 1.532 3.131
1.365 1.531 3.127
1.373 1.530 3.125
1.381 1.530 3.124
1.389 1.529 3.122
1.397 1.528 3.120
1.405 1.528 3.118
1.413 1.527 3.115
1.420 1.526 3.113
1.428 1.524 3.109
1.436 1.524 3.107
1.443 1.523 3.104
1.451 1.522 3.102
1.458 1.521 3.098
1.466 1.520 3.096
1.473 1.519 3.093
1.482 1.519 3.092
1.490 1.518 3.090
1.498 1.518 3.089
1.505 1.517 3.086
1.513 1.516 3.083
1.520 1.515 3.080
1.528 1.514 3.078
1.536 1.513 3.075
1.544 1.513 3.073
1.551 1.512 3.071
1.559 1.511 3.068
1.567 1.511 3.066
1.575 1.511 3.066
1.583 1.510 3.064
1.591 1.510 3.062
1.599 1.509 3.059
1.607 1.509 3.057
1.615 1.508 3.055
1.624 1.509 3.055
1.631 1.508 3.052
1.638 1.507 3.049
1.646 1.506 3.046
1.654 1.505 3.044
1.660 1.504 3.040
1.669 1.504 3.038
1.676 1.503 3.035
1.684 1.502 3.033
1.691 1.502 3.031
1.701 1.502 3.031
1.707 1.501 3.027
1.714 1.499 3.023
1.722 1.499 3.022
1.731 1.500 3.021
1.738 1.499 3.018
1.745 1.497 3.014
1.753 1.497 3.012
1.760 1.496 3.009
1.767 1.494 3.004
1.778 1.497 3.007
1.786 1.496 3.006
1.792 1.494 3.000
1.799 1.493 2.997
1.806 1.493 2.994
1.812 1.490 2.988
1.821 1.491 2.987
1.828 1.490 2.984
1.839 1.492 2.987
1.843 1.489 2.979
1.852 1.489 2.979
1.857 1.487 2.972
1.865 1.486 2.970
1.872 1.485 2.966
1.884 1.488 2.970
1.889 1.485 2.964
1.897 1.485 2.961
1.906 1.486 2.961
1.914 1.486 2.959
1.919 1.483 2.952
1.926 1.482 2.949
1.934 1.481 2.946
1.937 1.477 2.936
1.950 1.481 2.943
1.956 1.480 2.938
1.962 1.478 2.932
1.970 1.478 2.931
1.977 1.477 2.927
1.988 1.479 2.929
1.987 1.472 2.913
1.996 1.472 2.912
2.007 1.475 2.915
2.014 1.474 2.911
0.000 0.000 0.000
0.000 0.000 0.000
0.000 0.000 0.000
0.000 0.000 0.000
0.000 0.000 0.000
0.000 0.000 0.000
0.000 0.000 0.000
0.000 0.000 0.000
0.000 0.000 0.000
0.000 0.000 0.000
0.000 0.000 0.000
0.000 0.000 0.000
0.000 0.000 0.000
0.000 0.000 0.000
-1.400 0.987 1.951
-1.394 0.987 1.952
-1.390 0.987 1.955
-1.380 0.984 1.950
-1.385 0.992 1.966
-1.388 0.998 1.980
-1.393 1.006 1.997
-1.393 1.009 2.005
0.000 0.000 0.000
0.000 0.000 0.000
0.000 0.000 0.000
-1.379 1.016 2.023
-1.373 1.016 2.024
-1.370 1.018 2.030
-1.372 1.024 2.043
-1.371 1.027 2.050
-1.370 1.031 2.059
-1.368 1.033 2.065
-1.360 1.032 2.064
-1.351 1.029 2.060
-1.343 1.028 2.057
-1.338 1.028 2.060
-1.336 1.031 2.067
-1.333 1.034 2.073
-1.330 1.036 2.079
-1.329 1.040 2.087
-1.328 1.043 2.095
-1.329 1.049 2.107
-1.330 1.054 2.119
-1.335 1.063 2.138
-1.341 1.073 2.159
-1.346 1.082 2.178
-1.345 1.085 2.187
-1.343 1.089 2.195
-1.341 1.092 2.202
-1.338 1.095 2.208
-1.335 1.097 2.214
-1.332 1.100 2.221
-1.328 1.102 2.226
-1.325 1.105 2.232
-1.323 1.108 2.240
-1.320 1.111 2.247
-1.318 1.114 2.254
-1.314 1.116 2.260
-1.311 1.119 2.266
-1.308 1.122 2.273
-1.306 1.125 2.281
-1.304 1.129 2.289
-1.301 1.132 2.297
-1.298 1.135 2.304
-1.296 1.139 2.312
-1.293 1.142 2.320
-1.290 1.145 2.327
-1.287 1.148 2.333
-1.284 1.151 2.340
-1.281 1.155 2.348
-1.278 1.158 2.355
-1.275 1.161 2.362
-1.272 1.164 2.369
-1.269 1.168 2.378
-1.267 1.171 2.386
-1.264 1.175 2.394
-1.261 1.178 2.402
-1.258 1.182 2.410
-1.256 1.186 2.418
-1.252 1.189 2.426
-1.250 1.193 2.434
-1.247 1.196 2.442
-1.244 1.200 2.450
-1.241 1.203 2.458
-1.239 1.208 2.468
-1.236 1.212 2.477
-1.233 1.216 2.486
-1.231 1.220 2.496
-1.228 1.224 2.505
-1.225 1.228 2.514
-1.222 1.233 2.523
-1.220 1.237 2.532
-1.217 1.241 2.542
-1.213 1.245 2.550
-1.211 1.249 2.560
-1.208 1.254 2.569
-1.206 1.258 2.580
-1.202 1.262 2.588
-1.199 1.267 2.598
-1.196 1.271 2.608
-1.194 1.276 2.619
-1.191 1.280 2.628
-1.187 1.285 2.637
-1.184 1.289 2.646
-1.181 1.293 2.656
-1.178 1.298 2.666
-1.175 1.303 2.677
-1.172 1.308 2.687
-1.168 1.312 2.696
-1.165 1.316 2.706
-1.162 1.321 2.716
-1.159 1.327 2.728
-1.156 1.332 2.740
-1.153 1.336 2.749
-1.149 1.341 2.759
-1.145 1.346 2.770
-1.142 1.351 2.781
-1.139 1.356 2.792
-1.136 1.361 2.803
-1.133 1.367 2.815
-1.130 1.372 2.827
-1.126 1.378 2.839
-1.123 1.384 2.851
-1.121 1.390 2.865
-1.118 1.396 2.878
-1.115 1.402 2.891
-1.111 1.408 2.902
-1.108 1.413 2.914
-1.104 1.419 2.926
-1.100 1.424 2.938
-1.097 1.431 2.952
-1.094 1.437 2.965
-1.091 1.443 2.978
-1.086 1.448 2.989
-1.082 1.454 3.000
-1.077 1.458 3.010
-1.072 1.462 3.019
-1.066 1.465 3.026
-1.060 1.468 3.032
-1.054 1.471 3.038
-1.048 1.475 3.046
-1.043 1.479 3.056
-1.038 1.485 3.067
-1.034 1.490 3.078
-1.028 1.494 3.088
-1.023 1.499 3.099
-1.019 1.505 3.111
-1.014 1.510 3.122
-1.008 1.515 3.132
-1.003 1.519 3.141
-0.997 1.524 3.151
-0.991 1.528 3.160
-0.985 1.531 3.166
-0.978 1.533 3.171
-0.971 1.536 3.177
-0.965 1.541 3.188
-0.961 1.548 3.204
-0.959 1.558 3.225
-0.955 1.567 3.243
-0.950 1.573 3.255
-0.944 1.577 3.265
-0.937 1.581 3.273
-0.931 1.585 3.282
-0.924 1.589 3.290
-0.917 1.593 3.298
-0.910 1.596 3.305
-0.902 1.597 3.308
-0.892 1.596 3.304
-0.880 1.591 3.295
-0.868 1.585 3.284
-0.857 1.581 3.275
-0.847 1.578 3.270
-0.838 1.578 3.270
-0.830 1.580 3.274
-0.823 1.583 3.281
-0.816 1.588 3.290
-0.810 1.593 3.300
-0.803 1.598 3.312
-0.797 1.604 3.324
-0.790 1.608 3.333
-0.782 1.609 3.336
-0.773 1.609 3.334
-0.765 1.611 3.339
-0.758 1.616 3.351
-0.753 1.624 3.367
-0.746 1.630 3.380
-0.739 1.635 3.389
-0.731 1.637 3.393
-0.722 1.638 3.397
-0.714 1.640 3.400
-0.705 1.641 3.403
-0.697 1.643 3.407
-0.688 1.645 3.411
-0.679 1.645 3.413
-0.670 1.646 3.413
-0.661 1.646 3.414
-0.652 1.646 3.415
-0.643 1.647 3.417
-0.634 1.648 3.419
-0.625 1.648 3.419
-0.615 1.648 3.419
-0.606 1.649 3.420
-0.597 1.649 3.421
-0.587 1.647 3.417
-0.576 1.642 3.406
-0.566 1.639 3.401
-0.557 1.639 3.401
-0.548 1.640 3.404
-0.540 1.642 3.408
-0.531 1.644 3.412
-0.522 1.646 3.416
-0.513 1.647 3.418
-0.504 1.648 3.421
-0.495 1.649 3.422
-0.486 1.649 3.423
-0.477 1.648 3.421
-0.467 1.648 3.420
-0.458 1.648 3.421
-0.449 1.649 3.423
-0.440 1.649 3.424
-0.431 1.649 3.423
-0.421 1.649 3.423
-0.412 1.649 3.423
-0.403 1.650 3.426
-0.394 1.650 3.426
-0.384 1.650 3.425
-0.375 1.650 3.424
-0.366 1.650 3.426
-0.357 1.651 3.427
-0.347 1.650 3.426
-0.338 1.650 3.426
-0.329 1.649 3.424
-0.319 1.649 3.424
-0.310 1.648 3.421
-0.300 1.646 3.418
-0.291 1.644 3.413
-0.281 1.641 3.406
-0.271 1.637 3.400
-0.261 1.635 3.395
-0.252 1.632 3.389
-0.242 1.630 3.384
-0.233 1.627 3.379
-0.223 1.625 3.374
-0.214 1.623 3.371
-0.205 1.623 3.370
-0.196 1.624 3.372
-0.187 1.626 3.375
-0.178 1.627 3.378
-0.169 1.629 3.382
-0.160 1.632 3.388
-0.151 1.635 3.395
-0.142 1.638 3.402
-0.133 1.640 3.405
-0.124 1.642 3.409
-0.115 1.644 3.413
-0.106 1.646 3.417
-0.097 1.646 3.418
-0.087 1.645 3.417
-0.078 1.645 3.417
-0.069 1.647 3.419
-0.060 1.648 3.422
-0.050 1.649 3.424
-0.041 1.649 3.425
-0.032 1.648 3.423
-0.023 1.647 3.419
-0.013 1.646 3.419
-0.004 1.647 3.420
0.005 1.647 3.421
0.014 1.647 3.419
0.024 1.646 3.418
0.033 1.646 3.417
0.042 1.645 3.416
0.051 1.645 3.415
0.061 1.644 3.413
0.070 1.643 3.412
0.079 1.642 3.410
0.088 1.642 3.409
0.097 1.641 3.408
0.107 1.641 3.407
0.116 1.640 3.405
0.125 1.639 3.404
0.134 1.639 3.403
0.143 1.638 3.402
0.152 1.637 3.400
0.162 1.637 3.400
0.171 1.637 3.399
0.180 1.636 3.398
0.189 1.635 3.395
0.198 1.634 3.393
0.207 1.633 3.390
0.216 1.632 3.389
0.225 1.631 3.387
0.234 1.630 3.385
0.243 1.629 3.383
0.252 1.628 3.381
0.261 1.627 3.379
0.270 1.627 3.377
0.279 1.625 3.374
0.288 1.624 3.371
0.297 1.622 3.367
0.305 1.620 3.363
0.314 1.617 3.358
0.323 1.615 3.353
0.331 1.612 3.347
0.340 1.610 3.342
0.348 1.607 3.336
0.357 1.604 3.330
0.365 1.602 3.326
0.374 1.600 3.322
0.382 1.599 3.319
0.391 1.597 3.316
0.400 1.596 3.314
0.409 1.596 3.313
0.418 1.596 3.313
0.427 1.596 3.313
0.436 1.596 3.313
0.445 1.596 3.313
0.454 1.596 3.313
0.463 1.597 3.313
0.471 1.596 3.312
0.480 1.595 3.310
0.489 1.594 3.307
0.497 1.593 3.305
0.506 1.591 3.303
0.514 1.590 3.300
0.523 1.589 3.297
0.531 1.588 3.294
0.540 1.586 3.291
0.548 1.585 3.289
0.557 1.583 3.285
0.565 1.582 3.282
0.573 1.581 3.279
0.582 1.579 3.277
0.591 1.579 3.275
0.599 1.578 3.274
0.608 1.578 3.273
0.616 1.577 3.270
0.625 1.575 3.268
0.633 1.574 3.266
0.642 1.573 3.263
0.650 1.573 3.261
0.659 1.572 3.260
0.668 1.572 3.260
0.676 1.572 3.260
0.685 1.572 3.260
0.694 1.573 3.261
0.703 1.573 3.262
0.712 1.573 3.262
0.721 1.574 3.264
0.731 1.575 3.265
0.740 1.576 3.268
0.750 1.577 3.269
0.759 1.579 3.273
0.769 1.581 3.276
0.779 1.583 3.280
0.788 1.584 3.283
0.798 1.586 3.286
0.808 1.587 3.289
0.818 1.589 3.293
0.828 1.591 3.297
0.838 1.593 3.300
0.847 1.594 3.303
0.857 1.595 3.304
0.866 1.596 3.306
0.876 1.597 3.308
0.885 1.598 3.309
0.894 1.598 3.309
0.902 1.597 3.306
0.911 1.595 3.303
0.918 1.594 3.299
0.927 1.592 3.296
0.934 1.590 3.291
0.941 1.587 3.284
0.948 1.583 3.277
0.955 1.580 3.270
0.962 1.577 3.263
0.969 1.574 3.257
0.976 1.571 3.250
0.984 1.569 3.246
0.991 1.567 3.242
0.999 1.565 3.238
1.006 1.563 3.233
1.014 1.562 3.230
1.022 1.560 3.227
1.030 1.559 3.224
1.038 1.558 3.221
1.046 1.557 3.218
1.054 1.556 3.216
1.063 1.556 3.215
1.071 1.555 3.214
1.080 1.555 3.213
1.088 1.554 3.211
1.096 1.553 3.209
1.104 1.553 3.207
1.113 1.552 3.206
1.121 1.551 3.203
1.129 1.550 3.201
1.137 1.550 3.199
1.146 1.549 3.199
1.154 1.549 3.197
1.162 1.548 3.195
1.170 1.547 3.192
1.178 1.546 3.189
1.185 1.545 3.187
1.193 1.544 3.184
1.201 1.542 3.181
1.210 1.542 3.180
1.218 1.542 3.179
1.226 1.541 3.176
1.233 1.540 3.173
1.242 1.539 3.171
1.249 1.538 3.169
1.257 1.537 3.167
1.265 1.536 3.163
1.273 1.535 3.161
1.280 1.533 3.157
1.288 1.532 3.155
1.296 1.531 3.152
1.304 1.531 3.150
1.311 1.530 3.147
1.319 1.529 3.145
1.327 1.527 3.142
1.335 1.527 3.140
1.343 1.526 3.138
1.351 1.526 3.137
1.359 1.525 3.134
1.366 1.524 3.131
1.374 1.522 3.127
1.381 1.521 3.125
1.389 1.520 3.122
1.397 1.520 3.120
1.405 1.519 3.119
1.413 1.519 3.116
1.420 1.517 3.113
1.428 1.516 3.111
1.436 1.516 3.108
1.444 1.515 3.106
1.452 1.514 3.104
1.459 1.513 3.101
1.467 1.512 3.098
1.474 1.511 3.095
1.482 1.510 3.093
1.490 1.510 3.092
1.498 1.509 3.089
1.506 1.509 3.087
1.513 1.508 3.085
1.522 1.508 3.084
1.529 1.507 3.081
1.537 1.507 3.079
1.545 1.506 3.077
1.553 1.505 3.075
1.560 1.504 3.071
1.568 1.504 3.069
1.576 1.503 3.068
1.585 1.504 3.068
1.593 1.503 3.065
1.600 1.502 3.063
1.608 1.501 3.060
1.616 1.501 3.058
1.624 1.500 3.056
1.631 1.500 3.054
1.639 1.499 3.051
1.647 1.499 3.050
1.655 1.498 3.047
1.662 1.497 3.043
1.668 1.495 3.039
1.677 1.495 3.039
1.685 1.495 3.037
1.693 1.495 3.035
1.701 1.494 3.032
1.709 1.494 3.031
1.715 1.492 3.026
1.723 1.491 3.024
1.731 1.491 3.022
1.739 1.490 3.019
1.746 1.489 3.016
1.753 1.488 3.013
1.760 1.487 3.009
1.768 1.487 3.007
1.775 1.486 3.004
1.784 1.486 3.004
1.791 1.485 3.000
1.798 1.484 2.996
1.807 1.484 2.996
1.812 1.482 2.990
1.818 1.480 2.985
1.830 1.483 2.989
1.837 1.482 2.985
1.843 1.480 2.980
1.851 1.480 2.977
1.860 1.481 2.978
1.864 1.477 2.970
1.873 1.477 2.969
1.878 1.475 2.962
1.885 1.474 2.959
1.896 1.476 2.961
1.905 1.477 2.961
1.912 1.476 2.958
1.921 1.476 2.956
1.927 1.474 2.951
1.931 1.471 2.944
1.939 1.471 2.942
1.947 1.471 2.940
1.954 1.470 2.936
1.963 1.471 2.935
1.974 1.472 2.937
1.977 1.469 2.928
1.986 1.469 2.926
1.990 1.466 2.919
1.996 1.464 2.914
2.003 1.463 2.910
2.011 1.463 2.907
0.000 0.000 0.000
0.000 0.000 0.000
0.000 0.000 0.000
0.000 0.000 0.000
0.000 0.000 0.000
0.000 0.000 0.000
0.000 0.000 0.000
0.000 0.000 0.000
0.000 0.000 0.000
0.000 0.000 0.000
0.000 0.000 0.000
0.000 0.000 0.000
0.000 0.000 0.000
0.000 0.000 0.000
-1.396 0.978 1.946
-1.396 0.982 1.955
-1.393 0.984 1.960
-1.384 0.982 1.957
-1.384 0.985 1.965
-1.391 0.994 1.985
-1.393 1.000 1.997
0.000 0.000 0.000
-1.392 1.008 2.015
-1.389 1.009 2.020
-1.384 1.010 2.022
-1.377 1.009 2.022
-1.370 1.008 2.021
-1.370 1.012 2.030
-1.371 1.018 2.042
-1.371 1.022 2.052
-1.370 1.025 2.060
-1.366 1.027 2.064
-1.358 1.025 2.061
-1.348 1.022 2.056
-1.341 1.021 2.056
-1.337 1.022 2.060
-1.335 1.025 2.067
-1.332 1.027 2.072
-1.330 1.030 2.079
-1.328 1.033 2.086
-1.328 1.038 2.097
-1.329 1.043 2.108
-1.330 1.049 2.121
-1.335 1.057 2.139
-1.343 1.068 2.163
-1.347 1.076 2.180
-1.345 1.079 2.188
-1.342 1.082 2.193
-1.338 1.084 2.198
-1.336 1.087 2.206
-1.334 1.090 2.213
-1.331 1.093 2.219
-1.328 1.095 2.226
-1.324 1.097 2.231
-1.322 1.101 2.239
-1.320 1.104 2.247
-1.317 1.107 2.254
-1.314 1.110 2.260
-1.310 1.112 2.266
-1.307 1.115 2.272
-1.305 1.118 2.280
-1.302 1.122 2.288
-1.300 1.125 2.296
-1.298 1.129 2.304
-1.295 1.132 2.311
-1.292 1.135 2.318
-1.289 1.138 2.325
-1.286 1.141 2.332
-1.283 1.144 2.339
-1.280 1.147 2.347
-1.277 1.150 2.354
-1.275 1.154 2.362
-1.272 1.157 2.369
-1.269 1.161 2.378
-1.266 1.164 2.385
-1.263 1.167 2.393
-1.260 1.171 2.401
-1.257 1.174 2.409
-1.255 1.178 2.418
-1.252 1.182 2.426
-1.250 1.186 2.435
-1.247 1.189 2.442
-1.243 1.193 2.450
-1.241 1.196 2.459
-1.238 1.200 2.467
-1.235 1.205 2.477
-1.232 1.208 2.485
-1.230 1.213 2.494
-1.227 1.216 2.503
-1.224 1.221 2.512
-1.221 1.225 2.521
-1.219 1.229 2.531
-1.216 1.233 2.540
-1.213 1.237 2.549
-1.210 1.242 2.559
-1.208 1.246 2.569
-1.205 1.251 2.579
-1.202 1.255 2.588
-1.198 1.259 2.597
-1.196 1.264 2.607
-1.193 1.268 2.618
-1.190 1.273 2.627
-1.187 1.277 2.636
-1.183 1.281 2.646
-1.180 1.286 2.656
-1.177 1.290 2.665
-1.174 1.295 2.676
-1.171 1.299 2.686
-1.168 1.304 2.695
-1.164 1.308 2.704
-1.161 1.312 2.715
-1.158 1.318 2.727
-1.155 1.324 2.738
-1.152 1.328 2.749
-1.149 1.333 2.759
-1.145 1.338 2.770
-1.142 1.343 2.780
-1.138 1.348 2.791
-1.135 1.353 2.802
-1.132 1.358 2.814
-1.128 1.363 2.825
-1.125 1.369 2.837
-1.122 1.375 2.849
-1.120 1.381 2.863
-1.117 1.387 2.876
-1.114 1.393 2.889
-1.110 1.398 2.900
-1.107 1.404 2.913
-1.103 1.410 2.925
-1.100 1.416 2.938
-1.097 1.422 2.951
-1.094 1.429 2.965
-1.090 1.435 2.978
-1.086 1.440 2.989
-1.082 1.445 3.001
-1.078 1.451 3.012
-1.073 1.456 3.023
-1.068 1.460 3.032
-1.062 1.463 3.039
-1.056 1.466 3.046
-1.050 1.469 3.052
-1.044 1.473 3.060
-1.039 1.477 3.069
-1.034 1.482 3.081
-1.029 1.487 3.091
-1.024 1.492 3.102
-1.019 1.497 3.113
-1.015 1.503 3.125
-1.010 1.508 3.136
-1.004 1.513 3.146
-0.999 1.518 3.157
-0.993 1.522 3.166
-0.987 1.526 3.175
-0.980 1.529 3.180
-0.973 1.531 3.185
-0.966 1.534 3.191
-0.961 1.539 3.202
-0.957 1.547 3.219
-0.954 1.557 3.240
-0.950 1.565 3.257
-0.945 1.571 3.270
-0.939 1.575 3.279
-0.932 1.579 3.288
-0.926 1.583 3.297
-0.919 1.587 3.306
-0.912 1.591 3.314
-0.905 1.594 3.320
-0.897 1.595 3.323
-0.887 1.594 3.320
-0.875 1.589 3.311
-0.863 1.583 3.298
-0.852 1.579 3.290
-0.842 1.577 3.286
-0.833 1.578 3.288
-0.825 1.579 3.291
-0.818 1.582 3.297
-0.811 1.586 3.306
-0.804 1.591 3.317
-0.798 1.597 3.328
-0.792 1.603 3.341
-0.785 1.606 3.349
-0.776 1.607 3.350
-0.767 1.607 3.350
-0.759 1.609 3.355
-0.753 1.615 3.368
-0.747 1.622 3.383
-0.740 1.628 3.396
-0.733 1.632 3.403
-0.725 1.634 3.408
-0.716 1.636 3.411
-0.707 1.637 3.415
-0.699 1.639 3.419
-0.690 1.640 3.421
-0.681 1.642 3.424
-0.672 1.642 3.426
-0.664 1.643 3.428
-0.654 1.643 3.428
-0.645 1.644 3.430
-0.636 1.644 3.431
-0.627 1.645 3.433
-0.618 1.645 3.432
-0.609 1.646 3.434
-0.600 1.646 3.435
-0.590 1.646 3.435
-0.580 1.644 3.430
-0.569 1.639 3.420
-0.559 1.637 3.415
-0.550 1.637 3.415
-0.541 1.637 3.417
-0.532 1.639 3.420
-0.524 1.641 3.425
-0.515 1.643 3.430
-0.506 1.645 3.433
-0.497 1.645 3.433
-0.488 1.645 3.433
-0.478 1.644 3.432
-0.469 1.644 3.432
-0.460 1.644 3.433
-0.451 1.645 3.435
-0.441 1.646 3.436
-0.432 1.646 3.435
-0.423 1.646 3.436
-0.413 1.646 3.436
-0.404 1.646 3.437
-0.395 1.646 3.436
-0.386 1.646 3.436
-0.376 1.645 3.435
-0.367 1.645 3.435
-0.358 1.645 3.435
-0.348 1.645 3.434
-0.338 1.643 3.430
-0.329 1.641 3.426
-0.319 1.638 3.421
-0.309 1.635 3.415
-0.299 1.633 3.409
-0.290 1.630 3.403
-0.280 1.627 3.396
-0.270 1.624 3.392
-0.261 1.623 3.388
-0.252 1.621 3.385
-0.242 1.620 3.384
-0.233 1.621 3.385
-0.224 1.622 3.388
-0.215 1.624 3.391
-0.206 1.625 3.394
-0.197 1.628 3.399
-0.188 1.631 3.405
-0.180 1.633 3.410
-0.170 1.635 3.414
-0.161 1.637 3.419
-0.152 1.639 3.423
-0.143 1.641 3.427
-0.134 1.641 3.427
-0.125 1.641 3.426
-0.115 1.641 3.427
-0.106 1.642 3.430
-0.097 1.643 3.432
-0.088 1.644 3.432
-0.079 1.644 3.433
-0.069 1.645 3.435
-0.060 1.645 3.436
-0.051 1.645 3.435
-0.041 1.645 3.435
-0.032 1.644 3.434
-0.023 1.643 3.432
-0.013 1.642 3.430
-0.004 1.642 3.429
0.005 1.642 3.429
0.014 1.641 3.428
0.024 1.641 3.427
0.033 1.640 3.425
0.042 1.639 3.424
0.051 1.638 3.421
0.061 1.638 3.421
0.070 1.637 3.419
0.079 1.637 3.418
0.088 1.636 3.416
0.098 1.635 3.415
0.107 1.634 3.413
0.116 1.634 3.412
0.125 1.633 3.410
0.134 1.633 3.410
0.143 1.632 3.408
0.153 1.631 3.406
0.162 1.630 3.405
0.171 1.630 3.404
0.180 1.629 3.402
0.189 1.628 3.400
0.198 1.627 3.398
0.207 1.626 3.396
0.216 1.625 3.394
0.225 1.624 3.392
0.234 1.623 3.390
0.243 1.622 3.388
0.252 1.620 3.383
0.261 1.618 3.379
0.270 1.616 3.374
0.279 1.614 3.370
0.287 1.611 3.364
0.296 1.608 3.359
0.305 1.606 3.353
0.313 1.604 3.348
0.322 1.601 3.343
0.330 1.599 3.339
0.339 1.597 3.334
0.348 1.595 3.331
0.356 1.594 3.328
0.365 1.593 3.326
0.374 1.593 3.326
0.383 1.593 3.326
0.392 1.593 3.325
0.401 1.593 3.326
0.410 1.593 3.326
0.419 1.593 3.326
0.428 1.593 3.326
0.437 1.592 3.324
0.446 1.592 3.322
0.454 1.591 3.320
0.463 1.589 3.318
0.472 1.588 3.315
0.480 1.586 3.311
0.489 1.585 3.308
0.497 1.584 3.305
0.506 1.582 3.302
0.514 1.581 3.299
0.523 1.580 3.297
0.531 1.578 3.294
0.540 1.578 3.292
0.549 1.577 3.291
0.557 1.576 3.288
0.566 1.575 3.286
0.574 1.574 3.285
0.583 1.573 3.282
0.591 1.572 3.280
0.600 1.571 3.278
0.608 1.570 3.276
0.617 1.569 3.274
0.626 1.569 3.273
0.634 1.569 3.273
0.643 1.569 3.273
0.652 1.569 3.274
0.662 1.570 3.275
0.671 1.570 3.275
0.680 1.571 3.276
0.689 1.571 3.277
0.698 1.572 3.279
0.708 1.574 3.282
0.717 1.575 3.284
0.727 1.577 3.288
0.737 1.579 3.292
0.747 1.581 3.296
0.756 1.583 3.300
0.766 1.584 3.303
0.776 1.586 3.307
0.786 1.588 3.310
0.795 1.589 3.313
0.805 1.591 3.315
0.815 1.592 3.318
0.824 1.593 3.320
0.834 1.594 3.322
0.843 1.595 3.323
0.852 1.595 3.324
0.861 1.594 3.321
0.869 1.593 3.318
0.877 1.591 3.314
0.885 1.589 3.310
0.892 1.586 3.303
0.899 1.583 3.296
0.906 1.579 3.289
0.914 1.577 3.283
0.921 1.574 3.278
0.929 1.572 3.273
0.936 1.569 3.267
0.943 1.566 3.261
0.951 1.564 3.256
0.958 1.562 3.251
0.966 1.559 3.246
0.973 1.558 3.242
0.981 1.556 3.239
0.989 1.555 3.236
0.998 1.555 3.235
1.006 1.554 3.233
1.014 1.553 3.231
1.023 1.553 3.230
1.031 1.552 3.228
1.040 1.552 3.227
1.048 1.551 3.225
1.056 1.550 3.223
1.065 1.550 3.221
1.073 1.549 3.220
1.081 1.548 3.218
1.090 1.548 3.216
1.098 1.547 3.214
1.106 1.546 3.213
1.114 1.545 3.210
1.122 1.544 3.208
1.130 1.543 3.206
1.138 1.543 3.204
1.146 1.542 3.202
1.155 1.541 3.200
1.162 1.540 3.196
1.170 1.539 3.194
1.178 1.538 3.192
1.186 1.537 3.190
1.194 1.536 3.187
1.202 1.535 3.184
1.210 1.534 3.182
1.218 1.533 3.180
1.226 1.532 3.177
1.233 1.531 3.174
1.241 1.530 3.171
1.249 1.528 3.168
1.257 1.527 3.165
1.264 1.526 3.162
1.272 1.525 3.160
1.280 1.525 3.158
1.288 1.524 3.156
1.296 1.523 3.154
1.304 1.522 3.151
1.312 1.522 3.149
1.320 1.521 3.147
1.328 1.520 3.145
1.335 1.519 3.142
1.343 1.518 3.139
1.351 1.517 3.137
1.359 1.516 3.135
1.366 1.515 3.132
1.374 1.514 3.129
1.381 1.513 3.126
1.389 1.512 3.123
1.397 1.511 3.121
1.405 1.511 3.120
1.413 1.510 3.117
1.421 1.509 3.114
1.428 1.508 3.111
1.436 1.508 3.110
1.444 1.507 3.108
1.452 1.507 3.106
1.460 1.506 3.104
1.468 1.505 3.102
1.475 1.504 3.098
1.483 1.503 3.097
1.491 1.503 3.095
1.500 1.503 3.094
1.507 1.502 3.091
1.516 1.502 3.090
1.524 1.501 3.088
1.531 1.500 3.086
1.539 1.500 3.083
1.547 1.499 3.081
1.554 1.498 3.078
1.561 1.497 3.075
1.569 1.496 3.072
1.577 1.496 3.071
1.585 1.495 3.069
1.594 1.495 3.068
1.601 1.494 3.065
1.609 1.494 3.063
1.616 1.493 3.060
1.624 1.492 3.058
1.631 1.491 3.054
1.640 1.492 3.054
1.648 1.491 3.052
1.655 1.490 3.049
1.661 1.487 3.043
1.668 1.487 3.040
1.677 1.487 3.039
1.685 1.486 3.037
1.693 1.486 3.035
1.701 1.486 3.034
1.707 1.484 3.029
1.715 1.484 3.027
1.721 1.481 3.022
1.730 1.482 3.021
1.737 1.481 3.018
1.744 1.480 3.015
1.752 1.479 3.013
1.760 1.479 3.010
1.765 1.476 3.004
1.774 1.477 3.004
1.782 1.476 3.001
1.790 1.476 2.999
1.797 1.475 2.996
1.805 1.475 2.994
1.811 1.473 2.988
1.819 1.473 2.987
1.827 1.473 2.986
1.837 1.473 2.985
1.841 1.470 2.978
1.851 1.471 2.978
1.857 1.470 2.974
1.866 1.470 2.974
1.871 1.467 2.966
1.877 1.466 2.962
1.885 1.466 2.960
1.894 1.466 2.959
1.905 1.468 2.961
1.912 1.467 2.958
1.913 1.461 2.945
1.922 1.462 2.945
1.931 1.463 2.945
1.939 1.462 2.942
1.941 1.458 2.932
1.952 1.460 2.934
1.959 1.459 2.930
1.968 1.460 2.930
1.974 1.458 2.925
1.980 1.457 2.920
1.985 1.454 2.913
1.998 1.458 2.918
2.006 1.457 2.916
2.017 1.459 2.918
2.024 1.459 2.915
0.000 0.000 0.000
0.000 0.000 0.000
0.000 0.000 0.000
0.000 0.000 0.000
0.000 0.000 0.000
0.000 0.000 0.000
0.000 0.000 0.000
0.000 0.000 0.000
0.000 0.000 0.000
0.000 0.000 0.000
0.000 0.000 0.000
0.000 0.000 0.000
0.000 0.000 0.000
-1.400 0.975 1.952
-1.398 0.978 1.959
-1.392 0.978 1.960
-1.387 0.978 1.962
-1.389 0.983 1.974
-1.391 0.989 1.986
-1.391 0.993 1.995
0.000 0.000 0.000
0.000 0.000 0.000
-1.389 1.004 2.021
-1.385 1.005 2.024
-1.376 1.002 2.021
-1.371 1.003 2.023
-1.370 1.007 2.032
-1.372 1.012 2.044
-1.370 1.015 2.052
-1.368 1.018 2.059
-1.363 1.018 2.060
-1.354 1.016 2.057
-1.345 1.014 2.053
-1.340 1.014 2.054
-1.337 1.016 2.060
-1.333 1.018 2.065
-1.330 1.019 2.069
-1.329 1.023 2.078
-1.328 1.027 2.087
-1.328 1.031 2.097
-1.329 1.037 2.109
-1.330 1.043 2.122
-1.336 1.052 2.141
-1.344 1.063 2.165
-1.348 1.071 2.182
-1.344 1.072 2.186
-1.340 1.074 2.191
-1.337 1.077 2.197
-1.335 1.080 2.205
-1.332 1.083 2.212
-1.330 1.086 2.219
-1.326 1.088 2.224
-1.324 1.091 2.231
-1.321 1.094 2.238
-1.319 1.097 2.246
-1.316 1.100 2.253
